ply
format ascii 1.0
element vertex 1497
property float x
property float y
property float z
property uchar red
property uchar green
property uchar blue
end_header
-0.1596 -0.0379 1.7388 89 70 52
0.2109 -0.0745 1.5170 95 74 56
0.1927 -0.0702 1.5443 95 76 61
-0.1350 -0.0845 1.7082 92 72 54
-0.1628 -0.0812 1.7355 93 75 57
0.2438 -0.1238 1.4937 105 82 64
0.2159 -0.1246 1.5140 100 77 59
-0.1187 -0.1469 1.6761 88 68 52
0.2384 -0.1745 1.4869 103 82 64
-0.1444 -0.1787 1.7041 98 77 60
-0.1656 -0.1877 1.7216 85 67 50
0.2825 -0.2332 1.4626 80 62 50
-0.1059 -0.2295 1.6808 100 80 64
0.2468 -0.2716 1.4747 102 82 68
0.2661 -0.4344 0.5665 103 79 65
0.1728 -0.2839 1.5287 90 74 58
0.1079 -0.2948 1.5452 88 75 60
0.0842 -0.2932 1.5664 83 71 54
-0.0070 -0.3007 1.6220 87 72 55
-0.0655 -0.2991 1.6498 86 71 55
-0.1138 -0.2786 1.6599 102 84 67
-0.1368 -0.2862 1.6944 96 78 63
-0.1612 -0.2860 1.7181 101 81 66
-0.0918 0.1808 1.8853 136 101 81
-0.2219 -0.2779 1.7371 182 177 174
0.2455 -0.3069 1.4631 102 80 64
0.2048 -0.3242 1.4976 100 80 65
0.1650 -0.3181 1.5196 89 74 59
-0.1297 -0.3294 1.6874 105 91 78
0.2118 -0.3788 1.4878 253 255 253
0.1636 -0.3597 1.5230 104 86 71
0.0385 -0.3620 1.5918 108 88 71
-0.0060 -0.3707 1.6149 110 92 79
-0.0720 -0.3581 1.6701 98 81 71
0.1792 0.2790 1.5009 186 187 191
0.1105 0.2195 1.5505 146 113 97
0.0694 0.2028 1.5931 140 103 84
0.0250 0.2066 1.5949 140 107 87
-0.0126 0.2214 1.6325 144 113 96
-0.0684 0.2075 1.6384 138 105 85
-0.1514 0.2076 1.6990 132 127 122
0.2412 0.1813 1.4760 116 90 77
0.1975 0.1724 1.5069 124 90 70
0.0656 -0.3392 0.9657 107 83 62
-0.0283 0.1737 1.6193 137 100 79
0.2304 0.1320 1.4646 95 72 57
-0.1372 -0.3735 1.7487 151 129 125
0.1971 0.1366 1.4924 109 83 65
0.0766 0.1502 1.5585 156 119 97
0.1799 0.0959 1.5195 101 81 66
-0.1256 0.0712 1.6521 91 66 51
-0.1482 0.0673 1.6805 93 71 53
0.2328 0.0288 1.4635 106 83 68
0.2017 0.0316 1.4828 97 75 58
-0.0808 0.0496 1.6122 78 63 48
-0.1321 0.0190 1.6511 90 67 51
-0.1427 0.0219 1.6735 93 70 53
0.2636 -0.0201 1.4384 105 84 68
0.2337 -0.0161 1.4573 103 81 66
0.2426 -0.2846 0.5479 95 69 50
-0.1303 -0.0223 1.6418 94 69 52
-0.1481 -0.0249 1.6678 91 69 52
0.0132 -0.3424 1.8780 86 74 59
0.2329 -0.0671 1.4502 95 74 57
-0.1290 -0.0812 1.6490 91 67 51
-0.1491 -0.0764 1.6715 91 69 52
-0.1900 -0.0893 1.6868 111 89 74
0.4273 -0.1360 0.4719 104 84 69
0.2652 -0.1289 1.4219 106 85 71
0.2302 -0.1180 1.4476 100 80 64
0.2130 -0.1224 1.4664 81 60 44
-0.1326 -0.1295 1.6415 95 70 55
0.1892 -0.1620 1.4745 97 77 59
-0.1267 -0.1817 1.6310 92 68 54
0.2627 -0.2234 1.4230 103 83 68
-0.0724 0.1553 1.9148 143 119 104
0.2257 -0.2174 1.4395 96 75 58
0.1989 -0.2287 1.4730 92 73 57
-0.1528 -0.2317 1.6530 89 69 52
0.2182 -0.3632 1.5173 254 255 253
-0.1783 -0.2161 1.6885 84 66 49
0.2660 -0.2661 1.4152 100 83 74
0.2274 -0.2678 1.4326 103 84 67
0.1047 -0.2912 1.5086 78 67 52
0.2019 0.0156 1.6018 93 72 56
-0.1096 -0.2861 1.5937 84 70 56
-0.1235 -0.2816 1.6269 96 78 63
-0.2085 -0.2838 1.6689 219 209 204
0.2794 -0.3344 1.3953 148 147 145
0.2209 -0.3141 1.4338 94 75 60
0.2316 -0.3791 0.5866 108 83 65
0.1886 -0.0991 1.8795 91 71 55
0.0041 -0.3195 1.5510 93 77 61
-0.0839 -0.3203 1.5959 97 82 66
-0.1193 -0.3185 1.6207 100 84 70
-0.1665 -0.3279 1.6439 161 152 148
0.2303 -0.3515 1.3992 123 103 89
0.1765 -0.3537 1.4416 102 88 76
0.3410 -0.2346 0.5101 116 88 68
0.2183 0.1094 1.6560 101 78 61
0.1009 -0.3597 1.4823 119 102 87
0.0183 0.1626 1.7029 135 98 76
0.0154 -0.3671 1.5504 104 87 73
-0.0157 -0.4211 1.5644 90 78 68
0.1468 0.3004 1.4732 186 190 191
0.1638 0.2457 1.4602 182 181 181
0.1328 0.2161 1.4708 144 113 99
0.0305 0.2300 1.5273 159 137 129
-0.0459 0.2065 1.5857 143 111 91
0.3754 -0.2739 0.4497 82 64 47
-0.0857 0.2084 1.5993 142 109 90
-0.1529 0.2301 1.6285 55 60 51
0.1724 0.1759 1.4640 114 82 67
0.0893 0.1816 1.5025 137 99 78
0.0424 0.1809 1.5271 136 100 79
-0.0467 0.1849 1.5673 137 100 80
0.1991 0.1229 1.6048 102 79 62
-0.1326 0.1757 1.6212 107 83 68
0.1569 -0.3317 0.9909 96 80 64
0.1798 0.1365 1.4566 111 83 68
0.0943 0.1536 1.4901 146 109 84
-0.0036 0.1478 1.5219 150 114 91
-0.1392 0.1279 1.6183 96 75 58
-0.1691 0.1374 1.6470 164 152 142
0.2085 0.0910 1.4352 117 84 76
0.1801 0.0867 1.4405 122 97 84
-0.1378 0.0776 1.6135 93 68 52
-0.1686 0.0790 1.6445 102 80 66
0.1912 0.1976 1.7889 188 167 159
0.2476 0.0316 1.3942 110 76 65
0.2069 0.0409 1.4230 111 82 68
0.1739 0.0286 1.4273 110 77 59
0.4035 -0.3605 0.4378 113 102 94
-0.1697 0.0165 1.6218 95 70 56
0.2461 -0.0133 1.3815 114 82 67
-0.1179 -0.0194 1.5811 98 74 56
-0.1404 -0.0224 1.6117 92 68 52
-0.1633 -0.0200 1.6384 94 74 57
0.2444 -0.0635 1.3801 109 85 67
0.2149 -0.0578 1.4015 96 74 57
-0.1764 -0.0738 1.6169 103 83 68
0.2726 -0.1033 1.3479 115 99 86
0.1947 -0.2152 1.7515 101 75 57
-0.1430 -0.1230 1.5964 92 71 53
-0.1634 -0.1153 1.6124 91 68 52
-0.1651 -0.1508 1.6130 92 70 56
0.2440 -0.2186 1.3691 110 87 70
0.2120 -0.2111 1.3911 96 75 58
-0.0680 -0.2453 1.5468 80 68 54
-0.1146 -0.2217 1.5595 94 73 55
-0.1411 -0.2186 1.5949 91 70 53
0.4020 -0.2960 0.4306 105 76 56
0.2456 -0.2649 1.3691 100 79 62
0.1734 -0.2786 1.3843 84 68 53
0.0266 -0.2749 1.4903 79 67 52
-0.0248 -0.2828 1.5016 83 69 54
-0.0569 -0.2763 1.5353 80 67 53
-0.1126 -0.2770 1.5562 90 72 55
-0.1713 -0.2971 1.6241 95 76 60
0.2324 -0.3101 1.3631 106 85 70
0.2021 -0.3104 1.3901 93 75 59
0.1610 -0.3143 1.4105 87 72 56
0.2083 0.1351 1.4455 122 105 100
0.0707 -0.3170 1.4599 79 65 49
0.0347 -0.3203 1.4796 90 75 58
-0.0147 -0.3193 1.5084 91 76 59
-0.0587 -0.3134 1.5302 92 76 60
-0.1400 -0.1687 1.5938 95 74 57
0.2670 -0.3676 1.3273 131 121 118
0.4648 -0.1748 0.4085 101 77 60
0.2832 -0.1830 1.4511 109 94 78
0.2105 -0.3473 1.3810 118 105 95
0.0260 -0.3507 1.4917 102 83 66
-0.0568 -0.3705 1.5303 115 100 90
0.0028 0.2094 1.5569 140 103 84
-0.0933 -0.3573 1.5452 114 96 86
-0.1369 -0.3483 1.5927 84 73 60
0.0206 0.2716 1.5046 201 199 197
0.1073 0.2183 1.4531 165 144 137
0.0570 0.2234 1.4508 117 99 92
0.0127 0.2305 1.4894 170 151 142
-0.0300 0.2175 1.5070 168 146 135
-0.0547 0.2091 1.5330 140 105 85
-0.1264 0.2273 1.5556 167 161 157
0.0997 0.1833 1.4378 93 66 50
0.0612 0.1905 1.4603 121 90 74
-0.0703 0.1825 1.5308 135 100 80
-0.1156 0.1804 1.5621 112 85 70
-0.0770 0.1489 1.5314 136 100 78
0.2355 0.1727 1.6916 137 117 107
-0.1203 0.1313 1.5509 107 81 62
0.3939 -0.0610 0.5343 119 88 64
-0.1503 0.1279 1.5756 101 80 64
0.2311 0.0705 1.3723 186 187 189
0.1784 0.0804 1.3873 156 139 131
0.1421 0.0942 1.4050 153 142 136
0.0596 0.0961 1.4255 118 92 76
-0.1534 0.0768 1.5773 100 80 64
-0.1919 0.0801 1.6016 88 72 57
-0.2239 0.0634 1.6153 91 75 60
0.1693 -0.0317 1.6027 94 75 54
0.2474 0.0288 1.3420 121 85 74
0.0910 0.0472 1.4156 109 76 59
0.2237 -0.0112 1.3430 110 81 65
0.1494 0.0026 1.3912 114 78 58
0.2353 -0.4229 1.5674 252 255 255
0.1009 0.0070 1.3979 121 84 63
0.2633 -0.0503 1.3117 140 122 110
0.2230 -0.0535 1.3453 99 76 58
0.1947 -0.0461 1.3768 94 73 58
0.2007 -0.1073 1.3670 89 68 52
0.2660 -0.1517 1.3038 116 95 81
-0.1577 -0.2215 1.5451 86 67 49
0.0562 -0.2741 1.3905 79 64 48
0.0064 -0.2822 1.4617 79 67 51
-0.1001 -0.2849 1.4893 80 68 52
-0.1247 -0.2710 1.5132 96 77 59
-0.1806 -0.2740 1.5723 231 241 223
0.2178 -0.3078 1.3181 99 81 66
0.1788 -0.3110 1.3373 92 77 62
0.0916 -0.3185 1.3879 84 70 55
0.0024 -0.3134 1.4346 84 70 55
-0.0382 -0.3107 1.4609 87 72 56
-0.0881 -0.3149 1.4880 95 77 62
-0.1198 -0.3078 1.5094 95 79 65
-0.1592 -0.3112 1.5370 109 99 82
0.2624 -0.3509 1.2971 136 129 123
0.0451 -0.3369 1.8170 87 72 55
0.2220 -0.3521 1.3115 137 124 117
0.1324 -0.3418 1.3597 101 83 67
-0.0479 -0.4020 1.5975 89 75 64
0.0977 -0.3496 1.3900 99 81 65
0.0042 -0.3550 1.4394 95 76 59
-0.1033 -0.3163 1.5555 107 92 78
-0.0445 -0.3472 1.4454 96 78 65
-0.0737 -0.3495 1.4780 111 94 81
0.0438 0.1782 1.6411 138 103 83
-0.1733 -0.3705 1.5252 122 120 125
-0.0670 -0.3660 1.6250 113 100 90
0.0174 0.2190 1.4451 111 82 64
-0.1276 0.2304 1.5260 143 137 134
0.0410 0.1880 1.4215 169 167 167
-0.0145 0.1956 1.4475 111 82 65
-0.0529 0.1871 1.4651 133 100 81
-0.0923 0.1804 1.4896 121 89 72
-0.1423 -0.1392 1.8709 97 78 62
-0.1266 0.1861 1.5132 116 93 81
-0.1689 0.1793 1.5387 153 147 137
0.0746 0.1277 1.3995 177 179 177
-0.1323 0.1370 1.5103 100 75 58
-0.1767 0.1270 1.5363 105 89 73
0.2314 0.0728 1.2904 178 180 180
0.0635 0.0892 1.3984 118 85 65
0.0286 0.0953 1.4145 122 95 79
0.2891 0.0414 1.2401 163 162 162
0.2438 0.0528 1.2767 143 119 110
0.2079 0.0340 1.2989 126 92 75
0.3872 -0.2784 0.4894 100 76 58
0.1574 0.0385 1.3385 126 91 74
0.0748 0.0468 1.3842 121 84 66
0.0285 0.0398 1.4018 114 80 61
-0.0192 0.0396 1.4098 117 83 66
-0.1348 0.0389 1.5032 94 71 53
-0.1600 0.0411 1.5299 96 78 61
0.2974 -0.0097 1.2551 168 157 150
0.2454 0.0008 1.2797 117 86 71
0.1650 0.0024 1.3245 128 89 70
0.0721 0.0049 1.3772 119 83 63
-0.0148 0.0148 1.4031 108 76 59
-0.1394 -0.0157 1.4930 93 71 52
-0.1693 -0.0002 1.5238 99 79 62
0.3749 -0.0462 1.1932 209 211 213
0.2773 -0.0703 1.2537 200 195 195
0.2371 -0.0568 1.2718 103 78 60
-0.1082 -0.3412 1.8459 88 74 60
-0.1532 0.1977 1.8022 124 108 101
0.2110 -0.0534 1.2903 95 73 58
0.0917 0.1660 1.7212 132 97 75
0.2465 -0.1049 1.2781 103 79 62
0.2202 -0.1044 1.2871 97 76 61
-0.1859 -0.1173 1.5055 88 73 56
0.1528 0.2165 1.5271 139 103 85
0.2837 -0.1485 1.2391 122 104 93
-0.1419 -0.1601 1.4829 94 72 54
-0.1671 -0.1783 1.5002 87 68 51
0.0313 -0.3226 1.5912 89 74 57
0.2718 -0.1938 1.2324 123 103 93
0.2132 -0.2138 1.2839 94 73 56
0.1655 -0.4747 0.9748 131 108 92
-0.1718 -0.2137 1.5111 83 69 52
0.2743 -0.2498 1.2230 108 87 70
0.2376 -0.2540 1.2563 115 91 78
-0.1144 -0.2676 1.4567 86 68 51
0.2336 -0.2947 1.2499 100 79 62
0.2059 -0.3020 1.2781 102 85 71
0.1083 -0.3098 1.3185 85 71 55
0.0725 -0.3095 1.3364 88 73 57
-0.0155 -0.3151 1.3985 83 68 52
-0.1829 -0.3264 1.5042 160 147 144
0.2644 -0.3633 1.2253 79 76 69
0.2379 -0.3499 1.2441 127 108 96
0.1984 -0.3346 1.2790 124 104 92
0.2418 -0.2802 0.5198 100 70 50
0.1588 -0.3416 1.2883 100 80 63
0.3065 -0.5162 0.5680 115 116 113
0.1177 -0.3520 1.3149 96 77 61
-0.1020 -0.3498 1.4276 106 90 77
-0.1444 -0.3532 1.4649 122 108 102
0.2262 -0.4162 1.2487 65 62 57
0.2051 -0.3831 1.2577 105 98 90
0.1601 -0.3919 1.2809 130 133 132
0.0780 -0.3974 1.3388 97 94 93
0.2126 -0.4810 1.2712 64 64 55
0.2960 -0.1164 1.2691 132 115 109
-0.0185 0.2257 1.4160 186 186 186
-0.1566 0.2348 1.4862 175 170 165
-0.0757 0.1906 1.4306 125 102 91
-0.1178 0.1869 1.4522 123 100 87
-0.1545 0.1877 1.4704 125 110 100
-0.0783 0.1354 1.4207 118 92 79
-0.1555 0.1395 1.4677 114 90 75
0.0187 0.0721 1.3714 124 90 75
-0.0333 0.0812 1.3939 110 80 61
0.2021 -0.2027 1.3520 94 73 56
0.2225 -0.2550 1.3234 96 75 58
-0.1258 0.0980 1.4419 106 81 65
-0.1565 0.0872 1.4563 107 84 69
0.2695 0.0440 1.2126 144 136 135
0.1758 0.0384 1.2576 129 91 74
0.1383 0.0447 1.3038 130 95 78
0.0956 0.0396 1.3136 128 94 75
0.0104 0.0392 1.3531 120 84 65
-0.1230 0.0412 1.4261 111 80 63
-0.1556 0.0422 1.4604 93 72 55
0.3157 0.0008 1.1912 206 210 210
-0.1525 -0.1350 1.6563 98 76 60
0.2520 0.0125 1.2065 120 83 67
0.2209 0.0062 1.2357 112 81 64
0.1795 0.0085 1.2662 129 91 73
0.1359 0.0022 1.2830 130 89 70
0.0924 0.0001 1.2994 125 86 67
-0.1331 -0.0073 1.4311 106 79 62
-0.1704 -0.0065 1.4477 100 77 61
-0.2004 -0.0296 1.4528 85 63 45
-0.1686 -0.1109 1.4410 96 76 60
-0.2057 -0.1193 1.4437 81 64 47
0.2901 -0.1218 1.1784 113 95 83
0.2623 -0.1459 1.1981 107 81 62
0.2258 -0.1485 1.2202 98 76 59
0.0903 -0.3359 1.7882 86 72 55
0.2027 -0.1546 1.2488 98 77 62
0.2247 -0.4319 0.8663 111 83 66
-0.1328 -0.1417 1.4365 75 58 42
-0.1718 -0.1595 1.4434 92 72 55
-0.0311 0.1487 1.4045 142 128 119
-0.2101 -0.1571 1.4409 101 86 71
-0.2112 -0.2097 1.4392 85 67 50
0.2241 -0.2441 1.2125 97 74 58
-0.2064 -0.2562 1.4394 103 89 77
0.2562 -0.3012 1.1854 112 92 78
0.1768 -0.3017 1.2325 88 72 56
0.1291 -0.3086 1.2513 83 69 53
0.2850 -0.0037 1.6493 97 98 113
0.0425 -0.3136 1.3044 86 71 54
-0.0023 -0.3096 1.3241 88 73 57
0.0300 -0.3140 1.8865 82 70 56
-0.0449 -0.3149 1.3430 90 74 58
-0.0880 -0.3116 1.3770 86 72 55
-0.1719 -0.3057 1.4207 98 82 66
-0.2246 -0.3010 1.4419 123 107 96
-0.2461 -0.3100 1.4843 162 147 146
0.2514 -0.3461 1.1827 112 97 86
0.2177 -0.3383 1.1998 111 90 77
0.1307 -0.3369 1.2584 97 79 63
0.0821 -0.3485 1.2767 93 75 58
-0.0077 -0.3447 1.3272 88 71 55
-0.0871 -0.3503 1.3686 94 75 59
0.2124 -0.2190 1.5035 98 77 61
-0.2186 -0.3502 1.4429 131 109 106
0.2607 -0.3801 1.1734 115 107 101
0.2139 -0.3774 1.1980 148 147 144
0.1554 -0.3761 1.2370 129 108 94
0.1482 -0.3888 1.2600 134 134 131
-0.1151 -0.1934 1.6745 93 74 57
0.0983 -0.3767 1.2801 128 110 97
0.0019 -0.3775 1.3159 89 70 53
-0.1136 -0.3967 1.3699 98 83 75
-0.1470 0.1860 1.4318 124 103 107
0.1615 -0.2087 1.7945 78 61 46
0.0162 -0.3422 1.7780 92 77 59
0.2467 -0.0703 1.5028 104 82 64
-0.1438 -0.2365 1.6984 91 71 54
-0.1953 0.1952 1.4271 186 179 174
0.0252 0.0055 1.3924 115 79 59
-0.1328 0.1515 1.4150 183 174 173
-0.1774 0.1395 1.4300 137 125 116
0.2019 0.0917 1.1898 166 167 164
-0.0776 0.1004 1.3387 193 188 188
0.3863 -0.0906 0.1553 88 68 51
-0.1469 0.0957 1.3996 168 155 148
-0.1800 0.0890 1.4201 150 137 132
-0.2244 0.0886 1.4315 127 113 101
0.4229 -0.0879 0.4841 104 82 66
0.1612 0.0471 1.2202 132 93 76
0.1178 0.0425 1.2438 128 88 70
-0.0117 0.0422 1.3134 124 87 67
-0.0587 0.0475 1.3365 126 91 72
-0.1047 0.0492 1.3632 117 85 66
0.2463 0.0025 1.1656 118 86 69
-0.1219 0.0570 1.5824 94 71 51
0.2009 0.0045 1.1868 117 82 64
0.1109 0.0105 1.2390 130 87 69
-0.0585 0.0061 1.3420 121 84 65
-0.1029 0.0060 1.3642 123 87 67
-0.1472 0.0110 1.3811 130 95 74
-0.2356 -0.0033 1.4279 108 86 69
0.4253 -0.2598 0.1515 95 72 53
0.2404 -0.0442 1.1659 102 78 61
0.2925 -0.1996 1.1677 117 97 87
0.2120 -0.0344 1.1825 94 71 54
0.0472 -0.0340 1.2715 121 80 62
0.0492 0.1910 1.7538 133 97 77
-0.1965 -0.0519 1.4247 100 78 61
-0.2781 -0.0737 1.4260 148 135 120
0.2801 -0.0768 1.1375 108 86 71
0.2076 -0.0897 1.1799 91 69 54
-0.2019 -0.0835 1.4340 83 64 49
-0.2672 -0.1132 1.4301 104 83 69
0.2806 -0.1351 1.1274 112 92 79
0.2357 -0.1442 1.1537 100 77 60
0.3449 0.0161 0.5191 117 90 72
0.0336 -0.3103 1.3757 83 69 53
0.2168 -0.1411 1.1790 95 72 55
0.0254 0.1411 1.4734 133 100 77
-0.2090 -0.1583 1.4180 78 62 48
-0.2461 -0.1559 1.4216 92 73 58
0.0938 0.2242 1.5143 154 127 113
-0.2742 -0.1492 1.4208 90 73 59
0.1619 -0.2840 1.7775 102 79 62
-0.2708 -0.2077 1.4288 96 80 69
0.2682 -0.2314 1.1209 107 82 64
0.2183 -0.2481 1.1748 89 69 55
-0.2494 -0.2543 1.4163 87 70 54
-0.2818 -0.2513 1.4136 92 74 60
0.2743 -0.3017 1.1099 118 103 90
0.2310 -0.2936 1.1426 95 77 61
0.1510 -0.3016 1.1862 85 68 53
0.1045 -0.3033 1.2129 84 67 52
-0.1249 -0.1402 1.7494 94 74 57
0.0668 -0.3082 1.2327 88 71 55
-0.0227 -0.3092 1.2814 85 70 53
-0.0744 -0.3063 1.3028 86 71 54
-0.1543 -0.3122 1.3569 85 70 54
-0.2030 -0.3066 1.3816 85 70 53
0.2998 -0.3388 1.0804 134 129 128
0.2518 -0.3340 1.1094 104 89 74
0.2184 -0.1512 1.8526 99 81 65
0.2271 -0.3329 1.1378 103 83 69
0.1064 -0.3388 1.2069 89 70 55
0.0604 -0.3387 1.2311 97 78 61
0.0178 -0.3359 1.2565 95 76 60
-0.0234 -0.3384 1.2786 96 77 60
-0.0720 -0.3457 1.3047 95 77 61
-0.1239 -0.3399 1.3241 97 78 61
-0.1514 -0.3415 1.3576 94 75 59
-0.2034 -0.3349 1.3785 101 82 67
-0.2446 -0.3519 1.3980 104 84 73
-0.3084 -0.3601 1.4421 157 156 153
0.2463 -0.3977 1.1332 68 67 58
0.1570 -0.3736 1.1614 129 108 94
0.0227 -0.3784 1.2624 114 99 92
0.2109 -0.2527 1.2748 89 69 54
-0.0120 -0.3965 1.2684 96 77 63
-0.0815 -0.3894 1.2926 95 76 62
0.2397 -0.2945 1.8006 159 147 142
-0.2294 -0.3834 1.4080 92 71 56
0.2508 -0.1631 1.9067 111 107 103
0.2029 0.0934 1.1328 178 179 179
0.2568 0.0908 1.5083 135 120 110
-0.2523 0.0779 1.4129 101 79 73
-0.2967 0.0963 1.4139 102 110 91
0.3547 0.0501 1.0782 99 98 95
0.2535 0.0530 1.0942 136 100 84
0.2293 0.0540 1.1308 135 110 97
0.4569 -0.0888 0.5495 117 95 80
0.0946 0.0549 1.1981 130 87 71
0.0460 0.0484 1.2256 132 92 73
0.0057 0.0451 1.2571 132 94 73
-0.0308 0.0442 1.2666 132 95 76
-0.1334 0.0473 1.3241 126 90 70
-0.1672 0.0494 1.3401 125 92 74
-0.2141 0.0367 1.3717 129 95 75
-0.2661 0.0369 1.3978 131 110 98
0.3691 0.0359 1.0450 104 102 100
0.2529 0.0104 1.1011 126 94 77
-0.0089 -0.3215 1.6177 87 71 54
0.2177 0.0014 1.1162 114 83 65
0.1793 0.0134 1.1490 131 91 71
-0.0226 0.1818 1.5070 136 97 77
0.1371 0.0136 1.1697 136 93 74
0.0899 0.0121 1.1984 131 86 69
0.2480 -0.2049 1.2588 105 79 60
0.0412 0.0150 1.2168 129 88 69
-0.0468 0.0051 1.2630 130 92 71
-0.0845 0.0102 1.2922 131 94 73
-0.1322 0.0055 1.3112 129 92 71
0.3167 -0.0205 1.0365 113 107 104
0.2606 -0.0395 1.0995 110 85 71
0.1797 -0.0187 1.1323 127 88 66
0.1441 -0.0193 1.1537 137 95 75
0.3161 0.0734 0.5224 160 159 141
-0.1326 -0.3572 1.3947 104 85 70
-0.1517 -0.0305 1.3152 116 84 66
0.1946 -0.4223 0.9585 97 75 60
-0.1664 -0.0249 1.3530 119 85 66
-0.2978 -0.0504 1.3956 111 92 77
-0.1324 -0.1928 0.7826 85 67 50
0.3821 -0.2457 0.4687 86 68 52
0.3503 0.0215 0.4273 131 91 68
-0.1294 -0.2568 0.7727 86 65 50
-0.3065 -0.2555 0.8886 160 156 157
0.0790 -0.3023 1.7069 101 85 68
-0.2683 -0.0233 1.0486 95 71 55
0.3416 -0.2938 0.4993 91 72 57
0.1246 -0.3826 1.0139 124 111 99
-0.0680 -0.2965 0.7266 89 63 47
-0.1359 -0.2292 0.6622 84 65 49
0.2663 -0.2737 0.2615 73 58 44
-0.1239 -0.2996 0.7710 83 65 49
0.4364 -0.0920 0.4495 103 80 63
0.2173 -0.1189 0.8790 98 74 56
0.1307 0.1398 1.4570 113 80 59
0.4589 -0.3207 0.4420 124 117 113
0.3072 -0.3536 0.5342 85 70 57
0.1099 0.0560 0.5055 134 97 76
-0.0759 -0.3520 0.7177 92 66 51
-0.0909 -0.3478 0.7372 91 67 50
-0.1292 -0.3405 0.7579 83 65 49
-0.1448 0.0456 1.3887 120 86 67
-0.2092 -0.3735 0.8276 119 120 109
0.4064 -0.1585 0.1976 94 70 52
-0.0951 -0.3977 0.7350 88 66 48
0.0956 -0.3285 0.9799 86 68 51
0.0771 -0.4473 0.6318 84 69 53
-0.3126 -0.1236 1.2377 90 74 59
0.0343 -0.4538 0.6694 85 69 53
-0.0553 -0.4441 0.7101 89 71 54
-0.0005 -0.0180 1.1210 128 89 68
-0.1682 -0.4329 0.7761 90 73 62
-0.1712 -0.0559 0.9266 75 55 39
-0.3337 -0.0818 1.2270 89 70 52
-0.2254 -0.4257 0.8110 116 94 92
-0.0316 -0.3500 1.5018 103 84 67
0.4673 -0.0013 0.3483 124 117 117
0.1235 -0.4757 0.6044 88 69 52
0.1074 -0.4638 0.7892 86 69 53
0.2223 -0.2843 0.5834 93 68 49
-0.2526 0.0521 1.1963 119 96 83
-0.0509 -0.4903 0.7067 91 72 57
0.4032 -0.0303 0.4324 98 74 56
-0.0107 -0.3877 1.0871 193 190 193
0.3846 -0.2825 0.4723 87 68 51
0.3252 -0.2204 0.4914 112 87 69
0.2219 -0.2718 0.2934 73 59 44
-0.0630 0.0911 0.7176 120 112 107
0.1045 0.0554 0.6170 137 97 75
0.2122 -0.0041 1.2958 105 79 63
-0.0959 -0.3054 0.8554 83 62 45
-0.1270 -0.3698 1.6768 73 71 72
0.2290 -0.2588 0.8037 95 70 53
-0.1017 0.0631 0.7394 145 130 121
0.3998 -0.0582 0.2154 93 71 52
0.2829 0.0135 0.5110 115 86 67
0.2161 -0.2953 0.3861 66 55 42
-0.0413 -0.5254 0.5218 111 109 108
0.0193 0.0166 0.6536 138 98 75
0.2306 -0.3793 1.8314 113 106 111
-0.0977 0.0096 0.7345 92 67 50
-0.2430 -0.2039 1.4155 95 76 60
-0.1131 -0.3399 0.6954 87 62 46
-0.0428 -0.0313 0.6853 106 73 55
-0.1029 -0.0417 0.7277 92 67 50
0.2188 -0.0764 0.5354 103 72 50
-0.0785 -0.1422 0.6885 94 65 49
0.2105 0.0840 0.1841 134 100 84
0.2629 -0.3311 1.7545 98 96 97
0.4084 -0.1833 0.4226 97 73 55
0.0253 -0.0001 0.8733 133 94 70
0.3809 -0.1930 0.4386 85 65 47
0.5412 -0.2118 0.2997 91 92 90
0.0082 0.0290 0.9536 138 99 77
-0.0825 -0.1950 0.6900 92 64 48
-0.0826 -0.1114 0.3482 85 63 46
0.1094 -0.2949 1.1022 84 67 51
0.4346 -0.2344 0.3987 99 75 59
-0.1162 -0.2361 0.6057 86 65 47
0.1693 0.0332 0.9237 129 91 71
0.4028 -0.2290 0.4182 93 71 53
0.1809 -0.3601 1.8576 106 90 78
-0.1472 -0.2478 1.8079 89 71 54
-0.1345 -0.2811 0.5450 77 62 49
0.4472 -0.2770 0.3851 97 79 65
0.0751 -0.4815 0.6328 89 70 54
0.2178 -0.4606 0.9023 94 78 64
0.0712 0.1871 1.8007 144 107 89
-0.1436 -0.1104 1.4862 92 70 52
0.3569 -0.3146 0.4236 80 63 49
0.2188 -0.0390 1.6349 99 76 60
0.2320 -0.2971 0.6877 92 66 49
-0.0895 -0.4937 0.7211 102 90 80
0.0530 -0.3162 1.5264 91 75 59
0.3186 -0.3248 0.4569 82 65 49
0.2093 -0.3695 0.5400 82 61 44
-0.0507 0.1898 1.8692 136 102 84
-0.0814 -0.3959 0.6632 91 69 52
-0.1040 0.1285 0.8647 94 96 93
-0.1154 -0.3968 1.3236 89 74 65
0.2763 -0.5482 0.7078 114 111 108
0.2627 -0.4358 0.4725 90 87 80
0.1863 -0.4378 0.5203 79 62 46
0.1428 -0.0031 0.8724 140 99 76
0.1122 -0.5676 0.5952 139 134 133
0.1469 -0.4470 0.5420 81 66 50
0.0606 0.1121 1.3451 181 184 183
-0.0738 -0.2707 0.4557 83 63 47
-0.0944 0.1912 0.1966 113 111 112
0.2441 -0.3853 0.5429 85 65 50
0.2282 -0.3269 1.6514 106 85 69
0.2163 -0.3562 0.3933 110 87 72
-0.1307 -0.4656 0.9692 93 81 70
-0.1176 -0.4418 0.6960 93 78 64
0.1836 -0.3363 1.2243 96 76 59
-0.1574 -0.4389 0.7122 101 93 86
0.0981 -0.4731 0.5642 87 70 54
0.3922 -0.0626 0.2725 95 71 54
0.1281 -0.5439 0.5601 108 101 96
-0.0325 0.0899 0.6610 136 131 131
0.0678 -0.2726 0.1983 73 59 46
-0.1486 -0.3601 0.9520 95 78 64
-0.0501 0.0139 0.6418 122 86 65
0.3459 0.0623 0.4170 136 96 74
0.2381 0.0700 0.9436 135 126 122
-0.0645 -0.2034 0.2799 88 65 47
0.0866 0.0560 0.5680 135 96 74
0.0486 0.0538 0.5883 132 95 74
-0.1542 -0.0613 1.5640 94 75 57
-0.1327 0.0538 0.6906 175 168 163
0.2169 0.0756 0.3244 137 101 85
0.3851 0.0209 0.3985 114 82 62
0.1719 0.0218 0.5161 128 90 68
-0.0866 0.0124 0.6624 96 71 54
-0.2585 -0.2000 1.2939 96 74 57
0.1604 -0.4360 1.7386 176 190 187
-0.1294 -0.3096 0.8819 81 62 45
0.4178 -0.0307 0.3680 102 76 55
0.0771 -0.3256 1.5723 91 75 58
0.3964 -0.0208 0.3905 101 76 57
0.2137 -0.1668 0.7836 85 64 49
0.3410 -0.0050 0.4171 122 86 63
0.2616 -0.0188 0.4486 133 94 71
0.2253 -0.0116 0.4736 138 97 74
-0.1543 -0.2520 0.2823 115 111 108
0.1459 -0.2957 1.0736 89 73 56
0.1355 -0.0095 0.5496 140 99 80
0.0536 -0.0178 0.6036 141 98 74
-0.0671 -0.2364 0.6116 93 68 49
-0.0163 -0.4601 0.9674 102 86 72
-0.0682 -0.0836 0.6268 93 68 49
0.2514 -0.1025 1.3788 106 83 66
0.1811 0.0030 0.2285 123 82 61
-0.1401 0.0402 1.8482 90 71 52
-0.0836 -0.0895 0.6549 91 66 48
0.1984 -0.0337 1.9090 79 70 60
0.2225 -0.3285 0.5728 90 66 48
0.0670 -0.3565 1.5903 109 88 68
-0.1219 -0.0764 0.6778 85 63 49
-0.1611 -0.0672 0.6914 123 112 107
-0.0412 -0.0146 1.1508 148 105 83
0.3875 -0.1358 0.4949 107 83 66
0.3632 -0.4640 0.4352 124 117 117
0.4173 -0.1139 0.3535 97 73 55
0.2484 -0.2203 1.4763 106 87 73
-0.0683 -0.1287 0.6234 95 71 52
0.3911 -0.0888 0.4991 109 84 67
-0.0852 0.1228 0.3033 83 82 77
0.2028 0.0096 1.7157 88 69 53
-0.1715 -0.1419 0.6784 92 77 65
0.2207 -0.0432 1.2302 100 75 58
0.4323 -0.1530 0.1619 89 72 57
-0.2098 -0.2844 1.6267 248 235 226
-0.0527 0.0664 0.6461 123 101 89
-0.0712 -0.1774 0.6180 94 69 50
-0.1292 -0.1805 0.6746 88 68 52
-0.2417 0.0074 1.3216 121 89 70
0.2631 -0.3441 1.6173 68 65 58
0.4262 -0.2242 0.3470 97 76 59
-0.1659 -0.2580 0.9129 79 60 44
-0.0969 0.1253 0.1521 93 91 89
-0.3655 -0.1832 1.1831 175 107 126
-0.0386 -0.3173 1.5735 89 73 57
0.4568 -0.2774 0.3311 98 80 66
-0.1382 -0.1452 1.8219 92 75 57
0.0862 -0.5000 0.7479 91 72 55
0.2268 -0.2138 0.8134 94 71 53
0.4169 -0.2667 0.3488 91 74 59
-0.0709 0.1942 0.3010 116 116 118
-0.0123 -0.2926 1.0971 83 68 51
0.4539 -0.3102 0.3145 92 77 64
-0.2819 0.0174 1.2339 110 89 76
0.3753 -0.3163 0.3638 87 69 53
-0.1498 -0.2307 0.8137 78 64 49
0.2060 0.0357 0.7961 124 89 72
-0.1274 0.0047 0.6819 79 63 50
0.2524 -0.3319 0.4375 74 58 43
-0.1336 -0.0876 1.8236 91 72 55
0.0278 0.1477 1.6012 138 102 80
-0.0585 0.0557 1.1273 136 98 77
0.2106 -0.3408 0.4555 77 60 42
-0.0911 -0.1460 0.7659 93 66 49
0.2307 -0.0150 0.9405 107 81 64
0.1663 -0.6174 0.9117 86 82 77
0.4301 -0.3630 0.3322 117 110 103
-0.0360 0.1608 0.5213 101 99 95
-0.1058 -0.2357 0.7081 85 59 43
0.1638 -0.0016 0.9170 129 92 70
0.2381 -0.4190 0.4207 96 97 92
0.0878 0.0083 0.1670 127 90 67
0.1953 -0.4198 0.4598 86 74 62
0.1160 -0.4352 0.5032 74 62 47
0.1655 0.0593 0.5184 132 96 76
0.1930 0.1545 1.7858 122 90 71
-0.0679 -0.4801 0.5890 101 89 79
-0.1754 -0.4671 0.6463 99 99 96
0.4228 -0.3210 0.3411 95 76 60
0.2235 -0.5243 0.4972 144 143 141
0.3248 0.0279 0.7405 149 148 151
0.1894 -0.0092 0.4486 140 98 76
0.2117 -0.3194 0.8685 88 66 49
-0.0668 0.1050 0.6285 118 115 111
0.2184 -0.3495 0.2726 88 63 48
-0.1225 0.1000 0.6360 162 160 159
0.3270 0.0742 0.3795 134 96 75
-0.1917 0.0323 1.0083 128 93 73
-0.0475 -0.3370 1.7564 91 76 60
0.2960 0.0622 0.4165 134 96 76
0.3965 -0.1680 0.1587 85 65 49
0.2928 -0.2990 1.1437 131 135 132
0.3189 -0.2883 0.4603 78 61 46
0.1716 -0.1549 1.7140 92 71 52
-0.0859 -0.2934 0.6871 92 66 49
0.2325 0.0586 0.4388 133 94 72
-0.1521 0.1155 1.6805 95 73 55
0.2343 0.0559 1.1577 148 124 113
0.0033 -0.4828 0.6176 89 70 55
0.1440 0.0659 0.4566 140 101 81
-0.1402 0.0286 1.6083 95 71 55
0.0193 0.0551 0.5576 131 93 71
-0.0846 -0.0378 0.6573 97 70 51
0.2468 -0.1533 1.8193 114 97 85
0.1578 0.0543 0.7083 136 99 80
0.2556 -0.2221 0.9966 96 73 57
-0.0459 0.0757 0.5697 104 91 82
-0.1122 -0.1951 0.7105 88 60 45
0.1851 0.1957 1.6771 136 102 84
0.4471 -0.1842 0.3908 102 78 57
0.0769 -0.4252 0.7629 78 66 50
-0.0607 -0.0108 1.0977 138 99 77
-0.0688 0.0612 0.5997 120 99 88
-0.0818 -0.0984 0.2443 84 64 47
0.4849 0.0196 0.2609 123 111 99
0.4034 0.0303 0.3299 114 85 66
-0.0507 -0.0634 0.3409 94 69 50
0.2770 0.0254 0.4045 125 87 65
0.2096 0.0571 1.7092 99 78 63
0.1494 0.0209 0.4798 130 92 70
0.1036 0.0219 0.4969 129 90 68
0.0554 0.1441 1.6128 156 118 98
-0.1520 0.0102 0.7493 99 87 79
0.0806 -0.5064 0.5089 110 104 103
0.1346 0.0492 0.6569 134 95 73
0.2228 -0.0017 0.7153 113 83 64
0.1742 -0.2906 1.0120 82 66 51
0.2253 0.1772 1.9277 157 158 153
0.2797 0.0614 0.9883 90 85 85
-0.1017 0.0545 1.2556 134 98 80
0.0597 0.0264 0.5249 131 92 70
0.2035 -0.3847 0.6418 91 66 46
0.2663 0.0197 0.4693 131 93 71
-0.0698 -0.0749 0.5118 89 66 47
0.4203 -0.0801 0.5379 149 127 120
-0.1552 -0.5153 0.6350 99 94 90
0.1652 -0.5786 0.9022 106 88 74
0.1064 0.0149 0.6064 134 95 71
0.0152 0.0286 0.5503 130 92 70
-0.0268 0.0253 0.5739 131 93 71
-0.1869 -0.4423 0.7539 109 94 86
-0.1254 -0.4876 0.6741 94 81 71
-0.1352 0.0072 0.6455 98 89 85
-0.0580 -0.0475 0.7567 108 80 59
-0.0201 -0.3925 1.6619 68 72 78
-0.1137 0.0971 0.9158 90 89 85
-0.0781 0.0164 1.3838 111 81 61
-0.2852 -0.1785 1.0947 96 77 61
-0.1445 0.0131 1.7176 93 71 54
0.4069 -0.0177 0.3226 102 76 57
-0.0725 0.0536 0.7132 116 92 78
0.2997 0.0005 0.3644 122 83 61
0.2628 -0.0461 0.6137 99 74 55
0.1567 -0.0083 0.4689 129 90 66
-0.1486 -0.0912 0.7419 89 69 58
0.1517 -0.3292 1.0657 93 73 56
-0.0461 -0.0142 0.5659 110 77 56
-0.2434 -0.3047 1.4031 97 80 64
0.1052 -0.4535 0.6795 84 68 52
-0.1017 -0.0275 0.6173 88 66 50
0.3873 -0.0360 0.5039 112 86 69
0.0228 0.0465 0.6538 132 95 74
0.1171 -0.3600 1.5382 109 89 71
0.0677 0.0046 1.2592 133 92 73
0.3982 -0.1531 0.4678 96 73 54
-0.0541 -0.0601 0.5578 91 66 49
0.4353 -0.1131 0.2983 98 76 57
0.2007 -0.2824 1.5652 97 78 62
0.0104 -0.0278 1.2379 125 88 68
-0.1755 -0.3120 1.3098 87 71 55
-0.1440 -0.5229 0.6873 102 96 91
-0.2559 -0.0199 1.0924 103 75 58
0.4072 -0.1166 0.3140 95 72 54
-0.0767 -0.0810 0.5856 92 68 50
0.2447 -0.3669 1.4628 133 127 120
-0.1029 0.0326 0.3860 92 80 70
-0.0827 -0.1302 0.5811 93 68 49
0.1302 0.0174 0.5416 132 92 70
-0.0151 -0.2627 0.3045 87 66 48
0.2114 -0.1730 1.5093 94 73 56
0.4261 0.0291 0.3690 122 90 71
0.3276 0.0264 0.3760 127 90 69
0.6224 -0.1674 0.1760 90 91 90
0.2826 -0.2995 0.1904 75 61 45
0.5801 -0.1605 0.2341 93 95 94
0.4046 -0.1671 0.3071 94 71 53
0.0190 0.0463 0.1543 123 94 76
-0.2404 -0.0167 0.9178 147 157 162
0.0926 -0.5086 1.0727 126 121 119
0.2654 -0.0883 1.3219 113 89 72
-0.0658 -0.2879 0.6056 95 71 53
0.2804 -0.3931 0.8309 116 103 96
0.1829 0.0869 0.2384 134 100 84
0.3760 -0.1515 0.3508 93 71 52
0.2505 -0.0830 1.8179 106 89 74
0.0190 -0.5204 0.6019 112 101 90
0.2705 -0.4866 0.4828 111 107 106
-0.2157 -0.1579 0.9411 78 59 43
0.1573 0.0643 0.6068 137 95 74
-0.2482 -0.0991 1.2414 89 69 51
-0.1920 -0.0422 0.6665 160 168 175
0.2668 -0.3670 1.0006 148 121 103
-0.1440 -0.1739 0.6311 83 67 53
-0.2455 0.0623 1.0250 178 169 163
-0.1845 0.0455 1.4199 107 81 64
-0.0264 -0.3016 1.1677 85 67 52
0.5648 -0.2189 0.2330 94 96 95
0.2698 -0.0812 0.6224 104 79 63
0.5457 -0.2160 0.2234 88 89 87
0.2138 -0.1902 1.1693 85 64 48
-0.0864 0.2141 0.2541 114 113 117
0.3760 -0.0271 0.4597 106 78 59
-0.1485 0.0290 1.5725 93 73 55
-0.2325 0.0503 0.9287 120 115 112
-0.1780 -0.4983 0.4870 94 92 90
0.2314 -0.2454 1.7739 111 93 80
0.4182 0.0763 0.3639 103 101 97
0.4409 -0.2175 0.2794 96 76 59
0.4047 -0.2165 0.3111 91 69 51
0.3854 -0.2262 0.3397 83 65 51
0.2725 -0.2856 0.3548 72 59 44
-0.0558 -0.2377 0.5471 96 75 57
0.2658 0.0380 0.9246 134 108 97
-0.2692 -0.1515 1.3751 96 74 56
0.2411 -0.2576 1.8842 110 97 85
-0.1564 -0.2374 0.6193 87 71 58
-0.1758 -0.1817 0.6625 82 63 45
0.3697 -0.2753 0.3164 78 63 48
0.2222 -0.3836 0.5674 86 64 47
0.0146 0.0059 0.9398 133 96 75
-0.2830 0.0210 1.1287 125 104 89
0.3159 -0.2849 0.3448 75 62 47
0.4515 -0.2643 0.2763 98 85 72
-0.1231 -0.1509 0.7805 87 64 49
-0.0029 0.0552 1.0322 134 97 78
0.1276 -0.0345 1.2330 141 102 76
-0.0614 -0.2889 0.5410 96 76 59
0.2084 -0.0473 1.7086 94 75 60
0.0461 -0.3868 1.7187 118 96 80
0.2081 0.0408 0.2765 134 91 70
-0.2792 -0.2963 1.4187 116 102 88
-0.1679 -0.2132 0.6778 82 62 45
0.2440 -0.3640 0.4410 71 57 42
-0.1359 -0.4481 0.6340 100 90 80
0.2353 -0.1340 1.6639 109 83 70
0.3942 -0.3613 0.3533 115 101 92
0.1483 -0.3288 0.4107 60 50 33
-0.0838 -0.3291 0.5657 93 70 52
-0.1145 -0.3333 0.5854 89 68 51
0.4638 -0.3619 0.2811 115 109 104
0.1082 0.0704 0.3718 138 100 81
0.2965 -0.1016 0.9457 107 83 68
0.3988 -0.3699 0.2858 121 107 98
0.1234 -0.3124 1.7678 89 75 59
0.1794 -0.3642 0.4206 77 63 48
0.1329 -0.3786 0.4317 72 59 45
0.2992 -0.2873 0.5142 113 83 63
-0.0497 -0.3252 1.1223 91 72 56
-0.1222 -0.0375 1.7666 97 75 58
0.2356 -0.3213 1.0199 103 81 65
-0.0858 -0.3802 0.5586 91 69 50
0.1552 -0.2866 0.3286 73 60 47
0.1841 -0.4029 0.4219 81 68 53
0.1262 -0.2964 1.1423 88 71 56
0.1327 -0.4241 0.4358 81 63 47
0.0467 -0.4272 0.4853 72 60 45
0.2526 -0.2922 0.4379 69 56 39
0.2354 0.0141 1.0527 121 88 71
0.1162 -0.2645 0.2327 72 58 45
-0.2539 -0.2974 1.2905 94 76 60
-0.1120 -0.4348 0.5826 82 65 51
0.1103 -0.3213 1.4360 84 70 55
0.0511 -0.4589 0.4862 87 78 69
-0.1517 0.1283 1.3681 186 184 183
-0.0755 -0.4714 0.5444 105 92 81
0.2128 -0.4799 0.5546 94 75 60
-0.1382 -0.0642 0.8678 83 62 48
0.0087 -0.4301 0.9318 82 67 52
-0.1936 0.0527 0.7231 212 211 206
-0.2305 -0.3091 1.3371 90 74 58
0.3554 -0.2321 0.2381 74 61 47
0.0422 -0.2970 1.5902 85 72 54
-0.0367 0.1293 0.5273 106 98 93
-0.0180 0.0034 1.3129 124 87 67
0.2841 -0.0462 0.1757 127 87 64
0.1978 0.0807 0.7339 120 118 117
0.4005 0.0685 0.2891 132 101 86
-0.1036 -0.3333 0.6362 90 67 48
0.3028 0.0838 0.3391 112 87 75
-0.1095 -0.2438 0.8148 89 66 49
0.1923 0.0599 0.3828 129 93 72
-0.0373 0.0623 0.4954 93 70 58
-0.2787 -0.0493 0.9481 138 140 141
0.4445 -0.3288 0.3817 103 92 83
0.2737 -0.1833 0.6159 101 75 54
-0.0499 -0.4314 0.9548 96 79 62
-0.2034 -0.1205 0.6063 147 147 147
0.1165 0.0315 0.4359 131 92 70
0.0368 0.0212 0.4789 130 91 69
0.1586 -0.3661 0.3718 88 73 59
0.2530 -0.5067 0.7609 120 112 107
-0.0564 0.0257 0.5316 110 79 60
0.0480 -0.4617 0.8823 87 70 54
0.1787 -0.0048 1.4223 115 81 59
-0.0844 0.0174 0.5533 92 68 52
0.5020 0.0078 0.2241 120 109 105
-0.3223 -0.1136 1.0641 152 144 134
0.0026 0.1765 1.5531 136 100 79
-0.2201 -0.3309 1.1482 92 74 59
0.1915 0.2341 1.5065 180 177 177
0.1719 -0.2924 1.1205 82 66 50
0.4106 -0.0048 0.2679 102 77 58
0.3038 -0.0034 0.3281 130 87 64
-0.0672 -0.2490 0.1652 74 57 42
0.1822 -0.5085 0.5220 92 84 78
0.0724 -0.5230 0.9399 170 175 173
-0.1113 -0.1353 1.4960 100 77 58
0.0301 -0.0025 0.4683 125 88 66
0.1048 0.0238 1.0206 131 93 72
0.2576 -0.2012 1.2899 109 86 68
0.3709 -0.2480 0.5092 106 87 72
0.4187 -0.0743 0.2637 98 74 55
0.3039 -0.2932 0.4173 72 57 41
-0.1153 0.0939 0.6605 117 116 116
-0.0154 -0.4263 0.9705 100 80 63
0.2559 -0.2408 1.1916 107 82 64
0.4223 -0.1185 0.2471 96 73 54
-0.0671 -0.1231 0.5124 90 66 48
0.2173 0.0198 0.4950 122 84 63
0.0657 -0.4800 0.5355 81 67 50
-0.2601 -0.0835 1.2061 99 75 58
-0.1413 -0.1280 0.5749 91 70 55
-0.2083 -0.0473 0.8488 103 96 91
0.2113 0.0862 0.8001 127 119 114
0.2488 -0.3548 1.7868 113 107 109
0.5353 -0.1628 0.1688 80 83 79
0.4620 -0.1508 0.2213 100 77 58
-0.2352 -0.3593 1.1001 108 89 76
0.3934 -0.1590 0.2634 94 71 53
-0.2880 -0.3476 1.4156 108 94 84
0.4447 -0.0200 0.4942 125 105 95
-0.1497 -0.1982 1.8752 93 75 58
-0.1325 -0.4445 0.8645 94 77 65
-0.1223 -0.3547 0.9722 96 72 58
0.1385 -0.3212 1.4779 88 74 57
-0.1335 -0.1786 0.5613 83 68 53
0.2533 0.0603 0.6916 128 103 91
0.5872 -0.1872 0.1638 87 89 88
-0.0310 0.1984 1.8994 135 104 90
0.5032 -0.2189 0.1951 86 87 84
-0.0839 0.1132 0.5502 108 100 96
0.2362 0.0377 1.8009 112 95 83
-0.1534 -0.4372 0.5270 90 83 78
0.4558 -0.2131 0.2183 96 82 68
0.4368 -0.0111 0.5259 135 112 99
0.2267 -0.1893 0.5942 98 70 49
0.2445 0.0685 0.8206 133 106 93
0.0823 -0.3333 1.6805 94 78 61
0.3511 -0.3484 0.5068 83 76 69
0.0222 0.1736 1.5939 138 104 84
0.2638 -0.1668 1.4143 112 90 75
0.5046 -0.2656 0.1874 88 86 81
0.2803 -0.0336 1.6709 53 70 92
0.1977 -0.1796 1.5835 96 75 58
0.2415 0.2141 1.4804 203 200 202
0.2189 -0.5549 0.8177 128 122 117
0.4179 -0.2599 0.2375 88 70 53
0.0391 -0.4754 0.6432 94 76 59
-0.0521 -0.3238 1.6409 93 76 60
-0.0629 -0.2639 0.3901 86 66 49
0.2538 0.0418 0.7629 132 101 83
0.2925 -0.4934 0.7198 126 121 119
0.2453 -0.1143 0.8611 102 77 60
0.2015 0.1106 1.7117 95 76 61
0.3797 -0.2642 0.2563 80 64 48
0.2518 0.0296 0.3588 126 87 65
0.3917 -0.3540 0.2460 99 77 63
-0.1735 -0.2090 0.9141 74 56 39
-0.0353 -0.4010 0.4247 94 83 75
-0.2013 -0.2014 0.9635 94 67 49
0.3441 -0.0025 0.3088 122 84 62
0.2285 -0.0486 0.5706 94 71 56
0.1629 -0.1365 1.8387 100 80 67
0.2435 -0.2833 0.3224 79 62 48
0.1614 -0.2889 0.3528 71 59 42
-0.0101 0.1448 1.4300 117 94 82
0.4380 -0.0724 0.4101 105 80 61
-0.0899 -0.2804 0.5270 88 66 49
-0.0913 -0.0834 0.5419 91 69 53
0.1992 -0.2938 1.1635 87 69 53
0.0897 -0.4948 0.8436 99 79 62
0.0336 0.0328 0.3735 133 96 73
0.2150 -0.3068 1.8378 90 78 72
0.4602 -0.2997 0.2158 102 86 71
0.4136 -0.3102 0.2285 89 70 54
0.0955 -0.3257 1.0934 94 76 60
0.4297 0.0487 0.4923 129 100 85
0.4634 0.0488 0.3637 129 107 97
0.2276 -0.1925 1.7318 106 84 68
-0.0957 0.0861 0.3332 108 104 100
-0.0306 -0.3716 1.5761 95 78 62
-0.0394 -0.3439 0.3065 96 83 71
0.1051 -0.0209 0.4631 122 86 63
0.1081 0.0890 1.4221 116 86 70
0.0301 0.0405 0.7736 137 98 76
0.1164 -0.3284 0.3858 71 58 42
0.2746 -0.3250 1.3550 58 54 49
-0.1370 -0.0746 0.4385 86 70 58
0.0622 0.0588 0.6362 138 97 75
0.0470 0.0337 0.8204 140 100 78
-0.1734 0.0888 1.5275 90 74 58
0.4384 -0.2506 0.1670 92 73 57
-0.0368 -0.2539 0.2536 90 67 50
-0.0918 -0.3324 0.5205 91 71 54
-0.0987 -0.0947 0.7254 90 60 44
0.4280 -0.0693 0.3011 96 73 53
-0.2985 -0.1852 1.2861 88 69 53
0.1746 0.0128 1.9261 80 82 85
0.3936 -0.1165 0.2678 88 68 51
0.2530 0.0349 1.3189 154 127 116
0.3554 -0.3063 0.2056 80 64 49
0.3260 -0.2655 0.1689 77 63 48
-0.1091 -0.0079 0.3949 77 59 45
0.1161 -0.4210 0.8164 81 69 52
-0.1325 -0.0541 1.4373 92 71 53
0.0749 -0.4532 0.4582 97 101 95
0.1599 -0.4604 0.8776 84 68 51
0.0022 -0.0025 0.3258 125 89 65
0.3019 0.0693 0.8509 115 112 110
-0.0668 0.0126 0.7075 111 79 60
0.1006 -0.4968 0.7939 96 75 60
-0.0409 -0.3357 1.8596 87 73 56
0.0491 -0.3162 1.4160 82 68 52
0.0396 -0.2955 0.1582 81 64 48
-0.1747 0.1822 1.8872 150 130 120
0.0843 0.0727 0.3308 133 95 76
-0.1273 -0.4988 0.7569 97 92 86
-0.1062 -0.1360 0.6063 86 65 48
-0.0232 0.0521 0.6905 135 98 78
-0.0296 -0.2993 1.6856 98 83 66
-0.0228 -0.3122 0.3581 81 65 50
-0.0907 -0.1358 0.6500 92 67 48
-0.0804 -0.0559 0.3652 88 65 48
0.4801 -0.3630 0.2241 108 100 95
-0.1209 -0.1011 0.3843 75 60 45
-0.0745 -0.0086 0.3697 95 69 51
0.2914 0.0419 0.5242 123 88 71
0.3984 -0.2210 0.1575 79 65 49
-0.1494 -0.3951 0.7231 84 68 56
-0.1889 0.0645 0.7699 255 255 251
-0.0558 -0.1720 0.6636 104 77 59
0.3917 -0.4130 0.2072 112 100 92
0.0614 -0.3437 0.1956 86 70 55
-0.1381 0.0498 0.7477 113 106 100
-0.1168 -0.3471 0.3655 93 90 87
0.1285 0.1405 1.5711 140 103 80
-0.0775 -0.2603 0.3434 80 61 45
0.0181 -0.4742 0.5023 94 83 76
0.3519 -0.2686 0.2104 76 60 46
0.2833 0.0299 0.7642 137 108 97
0.2043 0.0024 0.2718 123 83 60
-0.1529 -0.4897 0.7177 103 93 87
-0.1198 -0.0267 1.3640 117 84 63
-0.0128 0.1435 0.1746 100 100 96
0.1791 -0.4526 0.6958 83 66 50
0.1971 -0.0249 0.7177 131 90 68
-0.1073 0.0890 1.3622 107 83 70
0.4184 -0.0668 0.3656 101 76 57
-0.0677 -0.2558 0.2783 83 63 45
0.3274 -0.1841 0.4895 120 92 72
0.1552 0.1454 1.5149 140 104 82
0.3058 -0.3862 0.5730 92 78 64
0.2187 -0.1243 0.5609 94 67 47
-0.0418 -0.3102 0.3164 85 67 52
-0.1284 -0.2313 1.6300 92 71 54
-0.1148 -0.2107 0.3768 75 59 43
-0.1979 -0.3815 0.5574 115 115 115
0.1987 -0.0112 1.4768 89 69 54
0.4609 -0.1452 0.4552 95 75 55
-0.3116 -0.0519 0.9627 43 49 45
-0.0849 -0.2425 0.6864 91 64 48
-0.0445 -0.3411 0.9723 79 60 44
0.2259 -0.1025 1.2277 97 74 57
0.2752 -0.0091 1.0336 118 107 103
0.0742 -0.4431 0.5240 80 65 49
0.1346 -0.4989 0.8268 97 77 58
0.1309 -0.3566 0.2283 88 70 55
0.2574 -0.3012 0.5045 73 57 41
-0.1088 -0.1553 1.6025 102 79 62
-0.1697 -0.3989 0.3922 89 88 86
0.4021 -0.0245 0.5081 141 109 91
-0.1052 -0.1603 0.4211 83 63 47
0.2285 -0.3095 0.7648 87 67 51
-0.0949 -0.2498 0.7468 93 68 51
0.4226 -0.3749 0.4982 124 115 112
0.3005 -0.4153 0.5309 94 97 91
-0.2191 -0.4174 0.4120 94 95 90
0.2134 -0.3919 1.7345 123 120 121
-0.0986 0.1842 0.2280 111 111 111
0.2581 -0.3085 0.7793 104 77 60
-0.0787 -0.3091 0.3405 81 68 55
0.1768 -0.3488 0.3259 93 75 60
-0.0087 -0.3227 1.1037 90 72 55
0.2144 -0.1603 1.4070 100 78 62
-0.1257 -0.2934 0.6656 80 63 49
-0.2416 -0.2659 1.0030 90 69 52
-0.0412 -0.3624 0.4228 77 66 53
0.3202 -0.0340 0.5947 151 119 105
0.2716 -0.2559 0.8136 90 66 47
-0.1820 0.1550 1.4968 89 77 56
0.1915 0.0325 0.8545 132 95 75
-0.0204 -0.4667 0.4736 87 82 75
0.2389 -0.2959 0.7327 97 68 52
0.1735 -0.3433 0.1926 82 64 47
-0.0341 -0.1031 0.2713 98 70 53
0.2700 0.0747 0.7286 116 113 111
0.2846 -0.3147 0.3002 81 64 47
0.0298 0.0375 0.2556 131 91 70
-0.0379 0.0362 0.8632 135 99 78
-0.1089 -0.1438 0.7175 86 60 46
0.2979 0.0197 0.4527 131 92 70
0.3109 -0.0030 0.2721 124 85 61
0.2601 -0.2507 1.2980 103 83 67
0.0095 -0.4365 0.5052 81 65 49
0.2414 -0.1034 1.7874 108 87 69
-0.1546 -0.2663 1.5362 105 92 79
-0.1092 -0.4561 0.9111 89 72 57
0.3834 -0.0006 0.1766 107 79 59
-0.0662 0.0388 0.3078 97 75 61
-0.0714 -0.3214 0.4928 90 74 60
0.1455 -0.4823 0.6449 90 72 55
-0.0042 -0.4182 1.5837 88 74 61
0.0014 -0.3924 0.2896 84 72 64
0.2990 -0.0198 0.4425 136 95 71
-0.0516 0.1604 0.1675 87 83 80
0.1128 -0.3044 1.7235 93 78 62
0.0584 0.0553 1.4278 115 87 70
-0.0981 -0.0010 0.1937 91 69 50
0.2027 -0.1798 1.6900 93 71 56
0.2315 0.2148 1.6686 154 141 133
0.1096 0.0012 0.2083 128 87 65
0.3439 -0.1362 0.5114 117 89 69
-0.1729 -0.3535 1.4166 112 90 79
-0.0350 -0.0876 0.3758 95 67 49
0.2374 0.2118 1.5092 225 231 235
0.4688 -0.0014 0.2265 140 118 108
0.2660 0.1243 1.5043 125 114 109
-0.1541 -0.3406 0.3290 91 91 88
0.0707 0.0091 0.2309 130 88 67
-0.0768 -0.3047 1.1952 85 67 51
0.4002 -0.3007 0.1814 83 66 51
0.1516 0.0288 0.9967 134 95 75
-0.0547 0.0797 0.4651 91 79 71
-0.2687 -0.2192 1.0338 90 69 53
0.4027 0.0802 0.3396 109 95 86
0.2795 -0.1354 0.5053 102 76 57
-0.1159 -0.2216 1.4679 89 67 49
-0.0672 -0.0540 0.2961 91 66 48
-0.1663 -0.0054 0.9338 81 60 45
0.1972 0.0716 1.8612 123 100 88
-0.1262 0.0750 0.5846 170 164 145
0.2697 -0.4349 0.5905 88 80 70
0.2948 -0.4195 0.5091 118 113 111
-0.1327 -0.4911 0.8569 100 87 82
-0.0639 -0.0054 0.2977 97 70 52
0.2580 -0.2568 0.7902 103 77 59
0.1948 -0.2337 1.6446 89 68 53
-0.0918 -0.2271 0.5338 89 68 50
-0.1725 -0.2597 1.4348 85 70 52
0.2042 -0.0441 0.6686 103 75 56
0.0966 -0.3429 0.1747 99 82 68
-0.2837 0.0560 0.9712 196 191 186
-0.0592 -0.5328 0.5873 105 97 93
-0.0958 -0.0540 0.3174 86 66 50
-0.1570 -0.1750 1.6580 90 67 50
-0.2815 -0.3105 1.0945 122 108 93
-0.0484 -0.0075 1.0456 138 98 73
0.1915 -0.3335 1.1699 99 81 66
-0.2665 -0.0499 1.3878 98 74 56
-0.0600 -0.0032 0.9336 117 83 63
-0.1013 -0.4754 0.6222 97 85 74
0.3829 -0.0168 0.3522 102 78 62
0.2552 -0.0895 1.0812 105 80 62
-0.0445 -0.1539 0.2560 93 69 50
-0.0889 -0.1258 0.5327 89 66 49
0.1756 0.0655 0.4041 138 100 82
-0.0285 -0.3040 0.2457 85 66 50
-0.0673 -0.1533 0.2872 87 64 46
-0.0684 -0.5155 0.6356 91 83 73
-0.2128 -0.1176 0.8446 116 109 104
0.1320 -0.4692 0.8353 86 70 55
-0.0128 -0.4730 0.5731 93 74 58
0.1322 0.0373 0.2476 130 88 68
-0.0832 -0.4081 0.4554 81 72 63
0.1537 -0.2690 0.1744 74 61 46
-0.2652 -0.0988 1.3824 97 75 57
-0.0970 -0.4273 0.5126 90 76 64
0.2347 -0.3304 0.5076 90 65 47
0.3405 0.0504 0.1985 122 89 70
0.3130 -0.0374 0.2454 124 86 62
-0.1180 -0.3127 0.2987 99 94 90
0.2186 -0.3729 0.9783 111 86 69
-0.1528 -0.3013 0.3154 95 95 92
-0.0881 -0.2495 0.2395 78 60 44
-0.1008 -0.1581 0.3152 80 60 43
0.2209 -0.2696 0.1837 74 60 47
-0.0993 -0.1432 0.1986 78 61 46
0.2211 -0.3552 0.8592 91 67 50
-0.2683 -0.3312 1.2489 110 91 81
0.0153 -0.3527 0.2238 94 82 71
0.0834 -0.4160 0.9694 93 74 58
0.4476 0.0345 0.4170 132 114 103
-0.0212 0.1242 0.1756 94 84 79
0.2898 -0.3927 0.6288 114 92 75
0.1650 -0.4492 0.5838 83 68 52
-0.0597 -0.0093 0.4086 106 77 57
-0.1119 -0.3109 1.3347 88 73 56
0.0995 -0.2729 0.1956 75 60 45
0.2317 0.0190 0.4271 127 89 66
0.0001 -0.0077 0.4348 131 92 69
-0.1719 -0.2052 1.4388 86 68 53
0.0436 -0.3463 1.3046 90 74 57
0.2023 -0.0133 0.5658 114 80 60
-0.1302 -0.3949 0.4863 133 131 130
-0.3350 -0.0153 1.2097 93 81 70
0.0269 -0.4456 0.5536 82 67 51
-0.0973 -0.3249 1.6644 92 76 61
-0.0477 -0.1958 0.2174 88 66 47
-0.0637 -0.1495 0.5471 92 67 49
0.3637 -0.0416 0.6813 134 135 135
0.0137 -0.3818 0.2069 96 79 64
-0.0527 -0.1131 0.3423 91 67 48
0.2868 -0.2055 1.2791 110 88 75
-0.1197 -0.3616 0.9191 82 63 46
-0.2123 -0.1929 1.8653 82 68 49
0.1011 0.0406 0.1602 126 92 70
0.1206 -0.3473 0.3364 78 61 46
-0.1547 -0.2849 0.2120 93 92 88
-0.1743 -0.0451 0.7769 162 155 152
0.2159 -0.1549 1.2830 92 72 57
-0.1114 -0.2906 0.7029 85 59 43
-0.0196 0.0167 0.6870 131 93 72
0.0942 -0.4610 0.9604 99 82 66
0.2659 -0.5230 0.5873 120 115 111
-0.2716 -0.2422 1.2584 96 75 58
-0.1422 -0.2920 0.2501 90 89 85
0.1393 -0.5386 0.6320 117 107 101
0.2489 -0.3460 0.5517 88 68 52
-0.1371 -0.3119 1.3965 89 73 56
-0.1535 0.0118 1.2695 126 90 69
0.1919 -0.1832 0.8068 82 62 46
0.5565 -0.2078 0.1531 88 88 87
0.1450 -0.3557 1.4693 89 73 59
-0.2708 -0.1817 1.1462 95 72 55
-0.0049 0.0052 0.2138 123 86 65
0.4432 -0.0016 0.1997 119 87 69
-0.2331 -0.0455 1.0564 100 76 60
0.2979 -0.3395 1.8941 104 107 106
0.0486 -0.2880 1.0122 86 69 52
-0.1301 -0.3425 0.6522 83 66 49
0.2264 -0.3872 0.4939 75 58 43
0.4517 0.0403 0.2310 121 94 81
-0.0684 -0.1726 0.5051 89 66 47
-0.2181 0.0779 0.9655 98 91 84
-0.1191 -0.0108 1.4673 93 69 51
-0.1263 -0.0798 0.1603 75 60 46
-0.0498 -0.3362 0.2001 82 67 53
0.4719 -0.2491 0.3693 102 84 67
0.2746 -0.2804 0.5023 101 75 55
-0.0443 -0.0087 0.3462 110 79 60
0.3821 -0.1364 0.4529 94 71 54
0.1939 -0.2830 1.4622 82 66 51
-0.1759 -0.3300 0.1576 84 84 81
0.4142 -0.2467 0.5077 96 79 64
-0.1408 -0.0324 1.8277 89 71 54
-0.0250 -0.4300 0.8510 82 65 52
0.2546 -0.5023 0.6496 112 102 95
-0.2028 -0.3313 1.2601 102 84 70
0.0690 -0.3670 0.4170 65 54 39
0.1023 -0.5565 0.5628 120 120 118
-0.1034 -0.1007 0.3206 81 63 49
0.2689 -0.1349 1.5437 166 153 148
0.1651 0.0267 0.4027 128 90 68
-0.2961 -0.0977 1.3960 94 75 59
-0.1976 -0.2350 0.2478 90 91 88
-0.0846 0.0002 0.8854 99 71 54
0.2527 -0.2981 0.5615 92 68 51
-0.0364 -0.0948 0.1608 92 68 50
0.2276 0.1739 1.6553 128 99 83
0.3244 0.0568 1.1208 89 85 84
-0.0585 -0.3088 0.3875 82 66 51
-0.0817 -0.0468 0.2488 93 69 51
0.0869 0.0119 0.6787 133 94 72
-0.1299 -0.1407 0.4380 75 62 44
0.4420 -0.3148 0.2710 100 78 61
0.4616 -0.1328 0.5230 139 139 137
0.3160 -0.3152 0.3543 82 66 50
0.3100 0.0629 0.5549 142 114 98
0.2178 -0.4276 0.5036 87 72 58
0.2569 -0.0281 1.6250 107 84 67
0.3841 -0.0924 0.4450 89 68 52
-0.0765 0.2413 0.3094 130 134 137
0.0885 0.0048 0.2835 128 90 67
0.1584 0.0380 0.8160 133 94 74
0.1503 -0.3966 0.3932 80 65 49
-0.0765 -0.3321 1.7076 100 82 66
-0.0784 -0.3199 0.4575 87 74 61
0.1873 0.0483 0.5562 133 93 71
-0.0695 -0.2723 0.4966 88 66 48
-0.1325 -0.4734 0.6466 117 111 104
-0.1134 -0.1096 0.4859 91 71 57
0.2005 0.1675 1.6101 124 96 78
-0.1498 -0.2209 0.3180 80 64 52
0.2131 -0.2958 1.2076 89 72 58
0.4368 -0.3500 0.1613 102 88 76
-0.1395 -0.3238 0.7248 72 55 40
0.2401 -0.0458 1.7907 109 91 75
0.2370 -0.0338 0.5382 98 70 51
-0.1291 -0.3593 1.5095 103 90 79
-0.1255 -0.3308 0.2466 99 95 93
0.1764 0.0452 0.7423 132 93 72
0.0409 -0.0229 0.1944 138 99 77
-0.1832 -0.3372 1.6711 157 150 150
0.1612 -0.3171 0.9975 88 69 52
0.0632 -0.0232 0.1551 139 97 73
0.3860 -0.0067 0.2806 107 78 59
0.2380 0.0474 1.6871 102 79 64
-0.0661 -0.2974 0.1610 74 59 44
0.1793 -0.3056 0.3102 75 60 44
0.4578 -0.0541 0.5206 136 123 114
0.2757 -0.3981 1.3221 200 200 200
-0.3397 -0.1190 1.1023 109 93 81
0.3033 -0.2688 0.2372 76 60 47
-0.0789 0.0491 0.2625 101 87 77
0.0020 0.1124 0.3244 123 117 115
0.1647 -0.4244 0.4764 77 64 50
-0.0581 0.0303 0.4199 105 81 66
-0.0741 0.0174 0.6033 104 76 58
0.4152 -0.0765 0.4264 99 74 56
-0.2197 0.0080 1.2572 127 92 72
-0.0363 0.0360 1.3834 114 80 61
0.1394 -0.4757 0.5343 85 70 57
-0.0769 -0.1696 0.4708 87 64 46
0.2663 -0.3043 0.2655 75 59 44
0.2223 -0.2357 1.5516 102 80 63
0.2820 0.0200 1.2962 85 75 71
-0.3047 0.0142 1.1876 131 113 101
0.0931 -0.4276 0.4735 74 60 45
-0.1202 -0.3323 1.2162 93 73 56
-0.1173 -0.1264 1.5782 92 70 53
-0.1172 -0.0274 0.1721 144 105 80
0.0604 -0.3231 1.1168 88 71 54
-0.0234 -0.1972 0.1864 92 69 52
0.2117 0.0975 1.8221 91 70 53
0.4067 -0.1096 0.2042 94 71 52
-0.1280 -0.2172 1.5217 94 73 55
-0.0411 -0.4336 0.5309 81 64 48
-0.0662 -0.0472 0.1876 97 72 54
0.3233 0.0798 0.5276 125 88 64
-0.3273 -0.2906 1.3371 113 102 101
-0.0400 -0.0424 0.1673 99 71 52
0.0058 -0.0493 0.6216 130 91 68
-0.1008 -0.2902 0.6414 90 67 49
-0.0415 -0.2101 0.4737 88 65 47
0.0738 -0.0025 0.3362 134 95 72
0.0053 -0.2956 1.5415 81 68 52
0.4058 -0.2629 0.2926 85 68 51
0.3185 0.0553 0.4943 127 89 64
0.0038 -0.4925 0.7937 92 73 58
-0.1570 -0.1127 1.5516 90 70 53
0.2389 -0.0987 1.1607 99 76 58
0.3734 -0.3096 0.2405 88 68 52
0.1298 -0.3141 0.2212 77 59 44
0.0544 -0.3962 0.3276 77 60 46
0.0783 -0.2648 0.2431 75 60 45
-0.1335 0.0916 1.5068 100 79 61
0.3838 -0.0995 0.3484 100 74 55
-0.1031 -0.0474 0.2108 109 80 60
0.3812 0.0305 0.2871 114 85 66
-0.0465 0.1716 1.4133 109 77 61
-0.0449 -0.1467 0.2215 89 67 48
0.2461 -0.1572 1.3782 107 84 66
0.1653 0.0434 0.1949 133 94 71
-0.2678 -0.1223 1.0417 94 73 57
0.2119 -0.2633 1.3905 95 75 59
0.2203 -0.2964 0.1759 77 62 46
-0.0663 0.2614 0.2723 121 122 126
-0.0149 -0.4471 0.5723 81 66 50
-0.2788 -0.1978 1.3271 91 71 54
-0.0387 -0.2056 0.2510 97 72 53
0.3146 0.0382 0.2664 131 88 69
0.2534 -0.2355 0.5514 94 68 48
-0.2248 -0.0010 1.3677 127 93 72
0.3076 0.0249 0.7673 132 132 132
0.2227 -0.0207 1.0055 104 75 56
0.0842 0.0156 0.5680 132 94 71
0.0685 -0.3428 1.8687 87 73 56
0.1710 0.1297 1.6295 121 90 68
-0.1076 -0.3640 0.4096 88 81 74
0.2007 0.0577 0.4512 139 99 75
-0.0276 -0.3544 0.2478 95 83 70
0.0432 0.0088 0.8112 136 96 74
0.0987 -0.6195 0.8056 125 122 116
-0.1814 -0.0742 1.5170 93 77 60
0.2074 0.0489 0.6098 132 95 75
0.0362 -0.4262 0.1739 98 101 98
-0.0991 0.0849 0.4322 107 103 99
0.0550 -0.5029 1.0009 120 118 115
-0.2406 -0.0121 1.0290 105 78 60
0.2137 -0.1758 0.5553 86 63 44
0.4541 0.0563 0.4284 127 120 117
0.2301 -0.3523 1.3556 61 40 28
-0.0771 0.0440 1.4027 115 81 63
0.2529 -0.0970 0.5859 95 69 48
0.0001 -0.3199 1.8469 94 79 63
0.1123 -0.3049 0.1754 78 63 47
0.1891 -0.0765 1.6559 89 66 52
-0.0823 0.1014 0.2652 91 87 82
0.0624 -0.4055 0.6675 80 68 52
-0.2466 -0.1460 1.2385 98 75 58
0.0631 -0.2864 1.5379 93 77 62
0.2799 0.1462 0.1657 89 86 82
-0.0645 -0.3851 0.6055 96 72 53
-0.0191 0.0682 0.3907 139 98 78
-0.1197 -0.3836 0.5765 78 62 47
0.2778 -0.2239 0.8342 106 82 67
-0.0636 0.0389 0.8214 125 93 75
0.0430 0.2297 1.4295 118 101 96
0.0823 -0.4616 0.7541 84 68 52
0.0503 -0.4805 0.5845 86 68 52
-0.0526 0.1001 0.2062 96 94 90
-0.2140 0.1052 1.3831 199 195 195
0.3285 0.0088 0.1872 132 93 68
-0.0675 -0.3043 0.2750 78 62 47
0.3867 -0.1031 0.1595 97 73 53
0.1411 0.0739 0.8888 142 98 77
0.1625 0.1264 1.0108 121 121 119
-0.0684 -0.0959 0.1819 83 62 45
-0.0586 -0.0349 0.6360 97 70 51
-0.1135 -0.3659 1.0347 107 85 68
0.3401 -0.0493 0.5607 131 102 80
-0.2497 -0.3375 1.2867 106 89 77
