ply
format ascii 1.0
element vertex 1488
property float x
property float y
property float z
property uchar red
property uchar green
property uchar blue
end_header
0.2956 -0.0770 0.1875 98 74 56
0.2723 -0.2947 0.4321 91 70 53
-0.2788 -0.3129 1.7629 122 107 98
0.4374 -0.0136 0.1538 107 103 100
0.1435 -0.2434 0.2226 70 54 39
-0.1685 -0.3167 0.6821 87 60 46
0.0899 -0.2353 0.1895 73 57 43
-0.1687 -0.4948 0.7115 97 86 75
0.0037 0.0416 0.3133 132 93 70
-0.1346 0.0692 1.3443 121 86 69
0.0590 -0.2989 0.3647 69 56 42
0.2773 0.0817 0.4684 129 100 86
-0.1845 -0.1003 0.4123 83 63 46
-0.1089 -0.1396 0.3417 89 65 49
-0.2115 -0.0114 1.8669 99 81 66
-0.2125 -0.0309 0.5631 89 69 54
-0.2548 -0.4577 0.6091 116 107 102
0.3030 0.0431 0.3353 120 89 72
0.0648 -0.3238 1.6819 93 75 59
-0.1586 0.0812 0.1861 87 68 55
-0.0825 0.0104 0.4336 128 90 67
0.2692 -0.3441 0.3919 101 83 70
0.1568 0.1385 0.6810 118 118 118
0.2015 -0.3444 0.2481 96 75 59
-0.1555 -0.3488 1.5565 113 98 86
-0.0942 0.0510 0.3760 127 90 69
0.1201 0.1026 0.8482 126 107 97
-0.3989 -0.0002 1.1265 87 67 52
0.3244 -0.3274 0.1665 101 86 75
0.1179 0.0683 0.5166 117 84 64
-0.0445 -0.3008 0.3660 77 66 53
-0.3661 -0.3164 1.8115 180 178 174
0.0170 -0.3712 1.2396 90 72 55
-0.1501 -0.2713 0.2268 80 64 48
0.1415 -0.4457 0.8287 103 84 75
0.0912 -0.3262 0.5640 91 68 49
-0.1363 -0.3754 1.7223 87 77 72
0.0851 0.0952 0.4278 127 91 71
-0.1175 -0.2797 0.9858 81 65 49
0.3079 0.0072 0.4370 116 85 66
-0.3355 -0.0052 0.5903 137 136 132
-0.0319 -0.0165 0.1790 129 86 65
-0.2202 0.1489 1.3475 178 178 177
-0.1448 -0.3821 0.4079 80 67 61
-0.0446 -0.4425 0.8004 85 70 55
0.0882 -0.2779 0.1971 73 57 43
0.0157 -0.5280 0.8485 107 103 99
0.0522 -0.0296 0.4234 125 86 65
0.1519 -0.2042 1.7236 109 86 73
0.2961 -0.1235 0.2024 96 73 53
0.1105 -0.5533 0.7839 120 119 115
0.1501 -0.1898 1.2436 122 103 89
0.1459 -0.0926 0.7821 102 77 58
0.4403 -0.3167 0.1538 93 95 92
0.1165 0.0164 0.5077 121 84 64
0.1365 -0.0713 0.5660 98 74 55
0.2846 0.1163 0.1693 103 90 79
-0.2148 -0.5226 0.6255 119 115 111
-0.0438 -0.3549 1.0537 102 83 65
-0.1752 -0.2856 1.3505 86 72 57
0.2144 -0.3317 0.4451 78 64 49
0.3226 0.1010 0.4532 122 111 106
0.0456 0.0796 0.2520 126 87 68
0.1491 0.0604 0.7637 130 96 82
-0.1489 -0.5163 0.6463 90 73 57
0.2987 -0.1061 0.3001 99 74 55
-0.0298 0.0208 0.4713 124 85 63
0.0972 0.0384 0.6641 129 95 76
0.1505 -0.4616 0.9545 149 140 134
0.3195 -0.2885 0.1754 103 76 59
-0.2539 0.0925 1.1428 144 118 104
-0.3634 -0.0692 0.9930 88 68 54
-0.0881 -0.3526 0.2071 103 102 93
-0.1807 0.0494 0.4380 86 62 47
-0.0837 0.0649 0.8827 140 102 82
0.2416 -0.0525 0.2075 112 78 55
-0.0466 0.0106 1.1409 132 90 71
0.1702 -0.0743 0.5685 106 77 56
0.1449 -0.0337 1.6645 115 96 85
0.3455 -0.2369 0.3516 114 101 89
0.3831 -0.2290 0.1587 84 76 65
0.2021 -0.3066 1.6660 158 159 158
-0.2352 -0.3287 1.7222 107 96 86
-0.2111 -0.2784 0.1933 79 65 57
-0.3605 -0.2483 1.2086 92 75 60
0.3005 -0.0538 0.2903 99 74 55
-0.0546 -0.2681 0.2682 76 60 46
-0.2145 0.1285 0.5174 117 113 112
-0.1052 -0.3446 0.3279 88 69 54
0.2041 -0.3649 0.5389 94 78 65
-0.1165 -0.0044 1.0073 137 96 74
0.1403 0.2100 1.6019 129 121 122
-0.0030 -0.2535 0.3141 71 57 43
0.0962 -0.1143 1.3895 98 75 56
-0.2340 -0.3577 0.7038 86 66 49
-0.2563 -0.0488 1.5220 95 77 61
-0.1934 -0.3922 0.2139 116 119 116
-0.0178 -0.2801 0.1617 78 64 50
-0.1684 0.1526 0.3969 104 101 99
0.1247 -0.2139 1.0010 104 80 64
-0.2969 -0.2939 0.3375 106 105 101
0.0834 -0.5518 0.3998 125 123 121
-0.2220 0.0993 1.8552 93 74 58
-0.1910 -0.1023 0.7216 85 59 45
-0.1260 -0.1261 0.1997 86 65 47
0.2993 -0.2570 0.3178 93 72 55
-0.2138 -0.3641 0.6948 83 64 48
-0.1568 -0.3933 0.2150 120 115 109
-0.2042 -0.3429 1.1194 106 81 65
-0.1278 0.1475 1.4180 103 72 56
-0.3246 -0.4619 0.5236 100 95 95
-0.2032 -0.3071 0.2842 85 73 64
-0.1993 0.1020 0.1551 122 123 127
0.3584 -0.0662 0.4796 128 116 111
-0.0156 -0.2422 0.1551 75 61 46
0.3572 -0.0366 0.4570 138 100 80
0.0175 0.1218 0.3110 132 102 84
-0.3103 0.0447 1.1157 127 92 73
-0.4066 0.0302 1.0306 157 149 148
0.0040 -0.4472 0.7863 87 70 55
0.0980 -0.0045 0.9729 124 94 74
-0.2882 -0.4347 1.8114 128 130 130
-0.0712 -0.2462 0.1616 74 60 46
0.0788 -0.2784 1.3190 88 71 55
-0.3203 -0.2694 1.0071 91 74 60
-0.2534 -0.2108 0.3327 101 98 95
0.2577 -0.3006 0.3290 90 70 53
0.2030 0.0021 0.3480 128 88 65
0.2403 0.0881 0.2336 117 84 66
-0.1427 -0.5487 0.7544 92 80 69
-0.2421 0.0314 1.7660 89 71 53
0.0458 -0.5390 0.4363 112 102 99
-0.1068 -0.1043 0.3637 93 69 51
-0.2096 0.0044 1.5700 100 78 62
0.0224 0.0232 0.9290 134 93 72
0.1399 -0.3278 0.1883 84 68 49
-0.2561 -0.1546 0.6906 92 75 66
0.0726 0.0560 0.4592 130 92 71
-0.0610 -0.3093 0.9748 88 70 56
0.3419 -0.3574 0.2758 117 109 106
-0.2706 0.1153 0.6602 115 112 111
-0.1971 -0.1312 1.7379 87 68 51
0.2460 -0.0937 0.2226 103 74 54
-0.3830 -0.1758 1.3554 86 67 51
0.3485 -0.0068 0.3167 121 90 75
0.0534 0.0605 1.1674 135 93 77
0.3639 0.0542 0.4175 125 107 100
-0.0654 0.0744 0.2666 112 79 61
-0.2165 -0.2507 0.4900 86 70 57
-0.0526 -0.2393 0.2021 73 55 42
-0.2959 0.0478 1.1629 131 93 74
0.0932 -0.3467 1.1189 121 102 91
0.0573 -0.5118 0.6074 122 107 96
-0.3284 -0.1184 1.0346 97 74 57
-0.2703 0.1850 1.7670 161 152 145
0.1802 0.0301 1.0134 129 101 89
-0.2466 -0.1184 1.7353 86 68 51
0.0791 -0.3478 0.2652 110 90 75
-0.2375 -0.1990 0.1585 84 82 78
-0.2413 -0.4751 0.8699 100 86 78
-0.1934 0.0089 0.8538 84 61 45
0.1707 -0.5008 0.5385 123 119 116
0.2654 -0.1464 0.2313 104 73 52
-0.4087 -0.3095 1.3877 109 89 86
0.0960 -0.2208 0.2441 73 59 44
0.0187 -0.3942 0.4732 75 63 47
-0.3224 -0.3600 1.3784 122 115 115
0.1778 -0.4367 0.4771 107 104 101
-0.4310 -0.1951 0.9389 180 187 197
-0.1570 -0.1357 0.1534 80 61 44
0.2076 0.0193 1.2098 159 151 150
0.2948 -0.1083 0.2537 99 74 55
0.0619 -0.2565 1.5116 94 76 59
0.0970 0.0449 0.7073 122 87 67
0.1388 -0.1009 1.1306 105 81 65
0.0185 -0.4698 0.5283 92 76 63
-0.3446 0.0580 1.2152 109 82 66
0.1450 0.0329 0.1946 129 88 66
-0.0444 0.2510 1.8953 167 163 160
0.0547 -0.2077 1.5151 89 70 53
0.0403 -0.3934 1.0101 174 164 160
0.1516 -0.2868 1.2562 137 124 115
-0.0931 -0.3461 0.3867 82 68 55
0.0894 -0.3427 0.5162 100 72 53
0.1335 -0.2668 0.6463 101 76 58
-0.0132 -0.3076 1.4768 85 73 57
-0.0112 -0.3257 0.1624 93 76 61
-0.1583 -0.4062 1.8385 94 75 60
-0.0892 -0.3957 0.3478 125 125 121
0.4832 -0.1717 0.1817 92 93 90
-0.2027 0.0114 1.1124 134 93 72
-0.2263 -0.2571 0.3969 88 69 59
-0.1978 -0.0440 1.7769 97 76 60
0.1151 -0.2740 1.3084 109 90 75
-0.2128 -0.2988 1.5071 91 76 61
0.0826 -0.4241 0.5739 89 69 53
-0.0491 -0.3914 0.6206 85 71 55
-0.2690 -0.3185 1.4066 103 83 70
0.1977 -0.0047 0.6044 138 105 89
0.1591 0.1506 1.0978 190 189 192
0.0710 0.1103 0.2217 130 97 77
0.1117 0.0570 0.8072 128 94 75
-0.2373 -0.2930 0.3768 93 94 91
-0.1856 0.1735 1.7385 126 94 74
-0.1590 0.1548 0.5268 98 97 96
0.2165 -0.2313 0.4799 109 85 66
-0.1494 0.1768 0.3154 90 87 84
-0.2105 -0.4751 0.5623 108 106 103
-0.0342 -0.3895 0.4752 74 60 45
-0.0672 -0.2591 1.0277 83 66 52
0.0675 -0.2361 1.2845 81 69 53
0.2944 -0.1376 0.1562 91 70 53
-0.1857 0.0165 1.2629 128 92 73
0.2125 -0.0568 0.2818 119 78 56
-0.1989 -0.1413 0.1826 81 67 54
-0.3222 -0.0031 1.0182 106 78 60
-0.1594 0.0200 0.1894 88 65 47
-0.0411 0.0066 0.3360 126 88 66
0.3333 0.0820 0.3150 120 100 89
-0.1327 -0.3997 0.4829 77 63 49
0.1168 -0.4750 0.4806 118 113 109
-0.1855 -0.2508 0.3811 79 62 47
0.0910 0.0767 0.1566 130 90 66
0.1466 -0.3715 0.8002 108 86 71
0.0897 0.0027 0.2190 126 83 64
0.4234 -0.2572 0.2203 91 90 82
-0.1860 -0.0708 0.3618 84 64 47
-0.1972 -0.0813 0.2247 84 65 51
0.1413 -0.2025 0.5207 99 70 49
-0.0576 0.0091 1.0849 137 98 77
0.1132 -0.1670 1.3485 102 79 61
-0.1524 -0.2547 0.3731 80 63 48
-0.1639 -0.0351 0.1838 82 61 43
0.1889 0.0385 0.6526 129 97 82
-0.0231 -0.2419 0.1963 76 58 46
-0.1753 -0.2578 0.4371 82 65 50
-0.3216 0.0982 1.2161 186 176 174
-0.2312 -0.4307 0.4690 103 100 97
0.1524 0.0469 0.3466 129 90 67
0.0851 -0.2750 1.3681 91 73 58
-0.2282 0.0104 0.8089 96 74 61
-0.2198 0.0522 0.1550 112 114 118
0.0314 0.0756 0.5648 133 97 76
0.1070 -0.0657 0.6780 92 67 52
0.2524 0.0445 0.4870 117 90 74
0.2341 -0.2739 0.1736 76 62 46
0.1340 -0.0178 0.9761 102 74 57
0.1331 -0.2040 1.5459 113 92 78
0.0245 -0.2299 0.2015 73 57 43
0.1949 0.0120 0.7659 130 103 91
0.1066 -0.3932 1.8535 108 108 110
-0.1251 -0.1775 0.2125 91 70 51
-0.2723 -0.3740 1.3302 150 135 127
0.3025 0.0890 0.3820 125 101 88
-0.3543 -0.3365 1.1739 110 98 91
0.1594 0.0840 0.3923 131 96 74
-0.1787 -0.3175 1.3520 90 74 57
0.0518 0.0442 0.3613 129 90 68
0.2047 -0.1297 0.7836 138 134 131
0.1723 -0.1094 0.4941 104 72 58
-0.3489 -0.1675 1.3505 93 74 58
0.1123 -0.0954 1.1857 99 76 58
0.2751 -0.3498 0.3475 108 99 90
0.1417 0.0182 1.6326 107 84 69
-0.1992 0.0346 0.2422 94 84 79
-0.0236 -0.2869 1.3296 83 69 53
0.1181 -0.0835 0.8783 98 75 56
0.3584 0.0160 0.4320 125 95 80
0.1303 -0.2230 0.1751 73 58 44
-0.0179 0.2434 1.8645 139 106 90
0.0799 -0.3485 1.8685 112 101 93
0.1896 -0.2290 0.1850 73 57 42
0.0469 0.1554 1.5161 137 100 79
-0.1127 -0.3625 0.2246 92 84 75
-0.1216 0.1947 1.8372 133 100 81
0.0276 -0.2929 1.3643 84 71 55
0.1712 -0.2491 0.4954 105 83 66
-0.1152 -0.1579 0.3012 90 67 51
0.0273 -0.0067 0.1510 123 84 63
-0.1421 -0.2107 1.0285 80 65 49
0.1074 0.0445 0.3547 133 94 72
0.1434 0.0359 0.6498 128 92 71
0.0141 -0.4971 1.8638 129 117 120
0.1205 -0.3317 0.5072 90 68 51
0.2449 -0.2655 0.2753 75 62 47
0.1433 0.1620 1.5466 130 95 80
-0.3485 -0.0873 1.2385 96 75 58
-0.2677 -0.4299 0.5697 88 81 77
-0.0910 -0.3921 0.3072 119 120 116
0.1229 -0.0272 0.3533 129 86 66
0.0142 -0.4052 1.7410 192 193 194
-0.1602 -0.1766 0.2147 81 62 44
-0.1109 0.0315 0.2309 119 83 62
-0.0454 -0.3089 0.3152 81 63 48
0.1491 -0.0018 0.3034 130 87 65
-0.1443 0.0083 1.1029 144 103 82
0.3244 -0.1701 0.1525 101 77 59
-0.1635 -0.0422 0.4948 81 59 42
0.3365 -0.1106 0.2434 105 80 64
-0.1334 -0.1211 0.5580 88 66 48
-0.1189 0.2509 1.6712 137 102 84
0.1064 -0.2833 1.2617 93 74 58
-0.1930 0.1119 0.8333 110 103 98
0.0988 0.0751 0.1986 129 91 70
-0.1491 0.0105 0.7957 117 82 62
0.3336 -0.0835 0.1817 102 76 61
-0.0836 0.1291 0.2993 104 96 89
0.0342 -0.3500 1.4858 102 84 70
-0.1348 0.0608 0.4807 100 73 56
0.1292 -0.3685 0.9658 133 116 105
0.0965 -0.2560 1.0570 94 74 58
0.0857 0.0196 0.1563 129 90 67
-0.1944 -0.1401 1.8490 83 66 49
-0.0023 0.0105 0.2909 130 91 67
-0.0692 -0.4098 1.8640 111 98 86
0.0784 -0.2222 0.8602 86 67 51
-0.2168 -0.3236 0.5906 83 64 47
-0.3126 -0.3153 1.0076 101 83 68
-0.2287 0.0812 1.7598 93 74 58
-0.2202 0.0149 0.4555 206 206 210
0.2238 -0.3377 0.4921 77 65 50
0.1569 -0.1455 0.5445 108 79 64
-0.0903 -0.3890 0.4485 71 61 48
0.3612 -0.0202 0.4043 123 89 77
0.4607 -0.3018 0.1585 97 97 95
0.1501 0.1558 1.6503 128 100 84
0.0637 0.0959 0.7084 112 84 66
-0.0490 0.0387 0.3179 133 94 72
0.0738 -0.3641 1.0203 140 126 119
0.0813 -0.3193 0.1568 85 68 51
-0.1680 0.1716 0.2220 98 92 88
0.2450 0.0333 0.1922 126 87 66
-0.2568 -0.3091 1.5171 111 99 86
-0.2579 -0.2740 0.2597 89 84 80
0.1135 -0.2414 0.8032 97 74 55
-0.2760 -0.1861 0.9300 66 50 36
-0.0142 -0.3067 1.0243 87 71 54
-0.2324 -0.3960 0.3633 115 112 111
0.0970 -0.3167 0.6653 96 68 52
-0.3625 -0.1037 1.1830 89 69 53
0.1208 -0.4325 0.5153 93 78 65
0.1487 -0.3225 0.2550 78 59 44
0.2896 -0.2308 0.1713 90 69 51
0.2067 -0.2241 0.2646 74 61 46
-0.1236 -0.2757 0.1711 79 63 47
-0.2100 -0.0132 0.2020 115 87 68
-0.2226 0.1520 1.8516 102 79 62
-0.1236 -0.3974 1.8102 162 157 156
-0.3642 -0.0630 1.0805 89 68 53
0.1583 -0.2116 0.3097 70 57 43
-0.0045 -0.3259 0.2170 88 68 52
0.0700 -0.2687 1.7710 98 78 61
-0.2577 0.0481 1.1070 130 92 74
-0.3039 -0.3183 0.3836 96 95 92
0.1241 0.0422 1.8227 105 85 68
0.1829 -0.3574 1.4669 165 165 163
-0.4318 -0.2262 1.3307 78 62 47
-0.0511 -0.3575 0.2814 94 78 66
0.1220 -0.0013 0.1757 137 90 69
0.1913 0.0798 0.1833 128 90 69
0.0361 0.1547 1.4638 131 94 75
0.3239 -0.3140 0.2622 106 85 70
-0.3621 -0.0739 0.9447 145 137 141
-0.1185 -0.4208 0.5996 83 67 52
-0.1256 -0.1522 0.2550 83 62 44
0.0563 -0.3124 0.4003 63 52 37
0.2427 0.0718 0.1837 118 85 66
0.1413 -0.1074 0.6734 101 74 57
0.2854 0.0713 0.1710 108 85 71
0.1143 -0.1829 0.8430 98 76 59
0.1889 0.1123 0.1731 130 97 79
0.1107 -0.5713 0.7352 111 110 106
-0.1083 -0.3959 0.3689 115 111 110
-0.2471 -0.2778 0.5976 77 59 43
-0.1641 -0.1508 0.3094 81 61 43
-0.2115 -0.1851 1.6920 89 71 55
0.3736 0.0059 0.4739 133 106 95
-0.1582 0.1247 0.2167 93 86 82
-0.0552 0.1181 0.2095 126 94 70
-0.2725 -0.3943 0.5085 118 118 112
0.3066 -0.1322 0.4739 135 107 91
0.1310 -0.1071 1.4360 104 82 67
-0.1008 -0.3759 1.2662 108 90 76
0.2221 0.0233 0.6485 137 126 122
-0.2316 0.1403 0.8277 107 104 101
0.3551 -0.4231 0.3063 122 118 117
0.1086 -0.2784 1.7184 126 109 96
0.1361 0.1107 1.6140 113 93 78
-0.3501 -0.3473 0.3607 103 99 98
-0.3190 0.0711 1.0085 110 80 65
-0.2299 -0.4288 0.8602 87 71 59
-0.3787 -0.2793 1.3216 92 77 64
0.1272 -0.0465 0.2169 120 82 58
-0.1417 -0.3534 0.3297 103 98 92
0.0418 0.0894 1.0446 155 132 123
0.1784 0.0227 0.9105 131 100 86
-0.2480 -0.1439 1.8811 150 146 140
0.1213 0.0378 1.7830 110 90 75
-0.3509 -0.0389 1.2312 92 72 55
0.1679 -0.3469 0.2173 96 78 59
-0.0478 -0.3625 0.3334 85 68 54
0.2936 -0.4293 0.3553 124 121 115
0.0756 0.0549 0.8645 135 96 77
0.2097 -0.2340 0.5714 116 98 83
0.0861 -0.0493 0.2358 122 84 62
0.0882 -0.3558 0.3110 92 73 56
-0.2761 -0.0778 1.6326 100 79 66
0.1620 -0.3636 0.3190 97 79 62
-0.2481 0.0459 1.5136 96 76 60
0.1683 -0.2955 0.4399 75 62 47
-0.0232 -0.4584 1.8457 170 183 181
-0.2170 -0.0244 0.4439 80 59 48
0.2087 -0.3492 0.2808 80 64 49
0.0042 -0.0221 1.1513 138 90 70
-0.1374 -0.0347 0.4973 95 68 51
-0.1798 -0.2252 0.4864 81 62 45
0.1340 0.1297 1.4221 157 150 149
-0.3350 0.1005 1.2486 140 117 103
-0.2656 -0.2745 0.8690 71 53 38
0.2557 -0.3514 0.3013 99 84 74
-0.2923 -0.0149 1.4426 51 37 22
-0.2334 -0.0717 1.7278 88 71 53
-0.1493 0.1538 0.4693 103 99 96
-0.2368 0.0647 1.2543 127 91 71
0.0869 -0.1994 0.1863 74 53 44
0.1814 -0.3956 0.4289 92 93 88
-0.0128 0.0293 0.6199 137 95 74
0.4330 0.0727 0.2374 118 118 116
-0.2034 -0.2890 1.5968 94 79 64
-0.2008 -0.3042 0.3368 79 65 54
-0.3622 0.0311 0.9786 114 89 80
-0.1031 -0.2995 0.3268 77 62 48
0.0079 -0.3123 0.4045 58 49 34
-0.2643 -0.2635 1.0946 83 68 54
-0.2205 -0.2763 0.5444 80 63 47
0.2816 -0.1877 0.4635 101 77 59
0.1278 -0.3496 1.4251 123 111 104
0.2196 -0.2271 0.1742 74 60 45
0.1395 -0.0155 0.6148 109 81 63
0.2624 0.0554 0.3855 126 90 71
-0.0051 -0.3079 0.3181 80 64 48
-0.0081 0.0780 0.6062 132 94 74
0.0048 -0.2917 1.2804 85 71 56
0.1019 -0.3058 0.2978 79 64 48
-0.1213 -0.0085 0.6038 109 77 58
-0.1537 -0.4462 0.7566 85 68 53
0.0741 -0.3186 1.3741 93 75 60
0.3598 -0.1596 0.3111 108 97 84
-0.1268 -0.0605 0.6412 89 63 46
-0.0243 -0.3640 1.7888 100 84 68
-0.3504 -0.3427 1.2205 120 107 98
0.2607 0.0489 0.3388 124 88 68
0.4178 -0.2882 0.2714 88 91 88
-0.0825 -0.5617 0.7949 128 124 121
0.0663 0.1486 0.9361 164 165 162
0.2510 -0.3526 0.2416 97 79 68
0.0072 -0.3585 0.3103 86 68 53
0.1616 -0.5139 0.8434 131 129 127
-0.2830 -0.2763 0.3614 92 93 90
0.0779 0.0282 0.9715 126 87 67
0.2519 -0.3694 0.4305 139 133 131
-0.1096 0.0841 1.0837 135 98 80
-0.3378 -0.1143 0.9729 79 61 46
-0.1709 0.1762 0.1595 104 103 104
-0.2113 -0.2382 1.0058 81 67 54
-0.1186 0.0253 0.1802 114 81 60
0.2965 -0.1745 0.2196 96 73 54
0.0478 -0.2606 0.3035 74 60 45
0.0141 -0.3572 0.7449 79 65 51
0.1185 -0.1623 0.5301 93 69 52
-0.1328 -0.3385 0.4705 77 62 47
0.0769 0.0248 0.9219 131 93 72
-0.3171 -0.4062 0.4156 99 97 96
0.0405 0.0350 0.6188 132 92 70
-0.2644 -0.5075 0.5604 114 107 109
0.0595 0.1980 1.5631 137 99 80
0.3422 -0.3331 0.4598 133 122 116
0.0084 -0.2627 0.3480 67 56 40
0.3895 -0.2588 0.2525 89 87 82
-0.2056 0.1518 1.5036 97 73 56
-0.0503 -0.3807 1.2536 120 98 85
-0.2009 0.1275 0.2136 132 138 150
0.2124 0.0844 1.3820 167 167 170
-0.1192 -0.2095 0.3260 89 69 51
-0.1228 0.0630 0.5329 109 77 59
-0.3173 0.0726 0.9246 137 138 140
-0.1610 -0.2046 0.3261 82 62 45
0.1795 -0.0678 0.7156 98 69 53
0.3892 0.0331 0.2091 121 103 94
-0.0012 -0.2299 0.2800 72 59 45
0.0881 0.2207 1.5410 147 116 102
0.0539 -0.0337 0.6994 145 98 75
0.1130 -0.3659 1.3647 138 126 120
-0.1788 -0.3368 0.5440 92 70 54
-0.3099 -0.0536 1.4330 74 58 42
-0.4076 -0.1229 1.0517 103 84 74
0.0433 -0.3606 1.0308 109 89 75
0.0523 -0.2296 0.2896 73 59 45
0.2739 -0.0637 0.5532 146 120 107
-0.0898 0.2137 1.6673 137 103 84
-0.3854 -0.1373 1.1911 85 65 50
-0.2462 -0.3188 0.6956 70 49 35
0.1131 0.0943 0.4626 133 104 86
0.0075 0.0053 0.3194 127 88 65
0.1129 -0.2206 0.3094 69 57 40
0.3357 -0.2075 0.2607 96 76 59
-0.3219 0.0826 1.4057 102 83 70
0.5195 -0.2407 0.1516 85 86 83
0.2963 -0.0094 0.2901 107 79 61
-0.1385 -0.2930 1.2379 83 68 53
0.3486 0.0833 0.2858 121 101 88
0.1047 0.0039 0.3576 131 91 67
-0.1399 -0.1196 0.5094 86 65 48
-0.1353 -0.3927 0.8939 83 67 52
-0.1798 0.0263 1.3058 125 89 69
0.0021 0.0033 0.3674 124 86 63
0.0903 -0.2859 0.5071 98 71 50
-0.0862 0.0540 0.8346 131 92 71
0.1808 -0.2693 0.1806 77 62 47
-0.1748 0.0159 1.5774 93 69 53
0.4055 -0.2092 0.2341 90 89 82
0.0996 -0.1867 1.6062 99 74 57
-0.4067 -0.2099 1.3954 85 70 52
0.1306 -0.4608 0.6267 101 90 78
-0.1436 -0.1725 0.5122 86 65 48
0.0672 0.0569 0.8133 128 92 72
-0.2452 -0.1274 1.6005 86 64 49
-0.2502 -0.1336 0.3308 90 75 66
-0.1923 -0.1493 0.3261 80 63 48
0.0481 -0.2593 1.8196 83 69 52
0.1004 0.0337 0.2519 129 87 65
0.3386 -0.1604 0.2553 98 74 56
-0.1468 0.0039 0.3307 89 66 47
0.3780 -0.2919 0.1884 101 102 97
-0.3888 -0.3283 1.2722 94 81 73
0.4287 -0.1838 0.2475 97 95 84
-0.2143 -0.3347 0.4969 96 87 80
-0.0563 -0.0033 0.2239 122 84 63
0.0684 -0.0844 1.7085 93 73 57
-0.2906 -0.3235 0.9119 106 96 87
-0.0451 0.0966 0.3476 129 95 75
0.3803 -0.1800 0.3066 108 81 67
-0.2083 -0.0890 0.3248 81 61 47
-0.3833 -0.3098 1.4105 131 103 93
0.0454 -0.0125 0.4809 111 75 55
-0.1172 -0.1174 0.3037 85 64 47
0.2813 0.0359 0.7537 112 113 113
-0.3453 -0.2826 1.2618 98 84 70
0.0952 -0.3111 0.2479 80 60 45
-0.1348 -0.0219 0.5420 100 72 55
0.1300 -0.2714 0.5947 100 74 55
-0.4081 -0.2191 1.3721 86 68 51
0.1719 -0.1144 0.5615 102 73 51
0.1528 0.1401 0.8933 117 117 116
0.0955 -0.2684 0.2482 73 58 43
-0.2112 -0.2321 0.5361 87 69 53
-0.0646 -0.1071 0.3089 91 65 49
-0.2069 0.0762 0.6473 98 79 68
-0.1751 -0.2679 1.8285 91 73 57
0.3438 -0.3456 0.3180 124 119 113
0.0889 -0.1956 1.5564 98 76 59
-0.1520 -0.0609 0.2961 85 64 47
-0.1574 0.1836 0.2653 102 97 93
0.0359 0.0254 0.5674 134 94 73
-0.1203 -0.0038 0.6570 124 86 65
0.2996 -0.0600 0.2422 98 74 56
-0.3263 -0.1782 0.6362 87 72 63
-0.0971 0.0552 0.7810 133 95 75
-0.1463 -0.0066 0.2887 99 72 54
-0.2056 -0.3005 1.0985 86 70 54
-0.1069 0.1197 0.1643 83 70 59
-0.0527 0.0006 0.2770 127 90 67
0.0897 -0.0066 0.2638 128 85 64
0.1954 0.0412 0.2936 127 86 66
0.1421 -0.0074 0.6635 114 82 64
-0.0741 -0.3060 1.0335 87 70 53
-0.1764 -0.1953 0.5198 85 65 48
-0.2073 0.2345 1.8385 154 134 124
-0.0301 0.0599 0.4720 127 91 70
-0.0160 0.1476 1.4269 109 81 65
-0.2057 0.0426 1.1047 134 97 77
-0.0504 -0.2683 0.3562 65 53 39
0.2977 -0.0162 0.2349 103 76 57
0.1171 -0.0848 1.2350 101 79 61
0.3491 -0.4606 0.2423 115 112 110
-0.4243 -0.2675 1.2631 188 192 143
-0.2415 -0.3700 0.7557 85 67 53
0.0933 -0.0132 0.1605 130 84 62
-0.1374 0.1433 0.3149 104 99 95
0.0375 -0.2782 1.0183 84 68 54
-0.3113 -0.2667 1.1020 89 72 57
-0.0259 -0.4664 0.5483 97 76 60
0.3753 -0.2157 0.3868 93 94 87
0.0953 -0.0065 0.6644 119 84 63
0.4633 -0.0093 0.2275 106 107 104
0.0234 -0.3072 1.7792 96 83 68
-0.3430 0.0912 1.7376 91 95 91
-0.3584 -0.2975 1.6657 171 159 161
0.1991 0.0120 0.9064 139 122 116
-0.0499 0.0276 0.2738 129 91 68
0.0766 -0.3689 0.9684 109 89 75
-0.1474 -0.1073 0.3529 83 61 43
-0.0737 -0.3189 1.3916 85 71 55
0.1465 -0.1919 0.8299 105 80 63
-0.2280 0.2769 1.7506 49 43 47
-0.2655 -0.4298 0.5238 124 124 124
0.1666 0.0187 0.4536 128 90 67
-0.2193 -0.0330 0.8625 78 60 45
-0.3913 -0.1665 1.1070 89 71 56
-0.0061 0.0410 0.2655 129 90 68
0.4041 0.0158 0.3216 126 117 112
0.1408 0.0357 0.2534 129 87 66
0.2960 -0.2569 0.2734 91 70 53
-0.0668 0.0645 0.9821 129 94 77
0.3454 0.0291 0.2220 126 93 74
-0.2278 0.0878 0.2901 149 156 171
-0.0638 -0.0182 0.5426 145 101 77
0.0764 -0.3501 0.4590 87 65 48
-0.1822 0.1113 0.5219 117 107 99
-0.2493 -0.4048 0.7674 87 72 59
0.0597 -0.3477 0.3164 105 85 71
-0.1018 0.0740 0.2730 113 83 64
0.1603 -0.2312 1.4080 118 99 91
0.2943 -0.3545 0.3279 109 94 85
0.0535 0.0831 0.3531 127 91 69
0.3512 0.0804 0.2162 121 104 95
0.0529 -0.3717 1.6455 110 94 84
-0.2097 -0.2813 0.8679 81 63 45
-0.0246 -0.0013 1.3762 112 77 58
-0.3048 -0.2948 1.1639 85 67 52
0.2268 -0.0339 0.3566 129 87 63
0.1434 0.2151 1.6522 244 242 240
0.1234 -0.2791 0.1865 73 58 44
0.1928 0.0769 1.4171 232 239 247
-0.3502 -0.1774 1.2975 93 74 59
0.1297 0.0240 0.5590 115 84 65
-0.1101 0.0390 1.0878 137 98 76
-0.3408 -0.0678 0.9736 81 61 46
0.0973 0.1558 1.5562 125 92 73
-0.2726 -0.0669 1.4323 92 73 58
0.0891 0.0873 0.2473 128 92 74
-0.1947 -0.2815 1.7423 88 73 57
-0.1907 -0.0311 0.2658 84 64 48
-0.0471 0.2217 1.6575 144 112 97
0.1559 -0.1708 0.5512 109 78 57
0.0466 0.0902 0.3069 133 96 77
-0.0331 -0.4225 0.4971 81 66 51
-0.4044 -0.1804 1.0053 172 125 136
0.0936 -0.2701 1.0080 88 71 58
-0.0239 0.1482 1.8274 133 98 76
-0.2549 -0.0740 0.3568 184 187 205
0.1106 -0.5364 0.8502 112 107 103
0.1893 0.0706 0.5878 126 102 87
0.1996 0.0746 0.2310 126 85 66
0.2525 0.0011 0.8036 122 117 114
0.2965 -0.0181 0.1908 101 76 56
-0.3279 -0.3182 1.3734 107 93 79
0.1083 0.0080 1.2258 118 84 66
-0.0505 -0.4929 0.7546 111 87 70
0.0057 0.0522 0.8148 133 95 75
0.2903 0.0817 0.2187 116 92 77
0.0109 -0.4795 0.4947 98 91 84
0.0339 -0.2757 0.1523 76 62 45
-0.3861 -0.2822 1.2188 94 80 68
-0.0618 -0.0017 0.6302 137 95 71
-0.0933 0.1142 0.2507 103 100 94
-0.2207 0.1663 0.5556 240 230 199
0.0690 -0.4307 0.4809 94 78 65
-0.2506 -0.3858 0.3797 115 112 111
-0.1012 -0.3002 1.5976 86 72 57
-0.2233 0.0810 1.0445 133 97 78
0.2890 -0.3208 0.1846 98 76 61
-0.1206 -0.2342 0.2086 80 62 46
-0.3672 -0.1578 1.0932 87 67 51
0.0773 -0.3091 1.7752 99 81 65
-0.0712 -0.3915 1.1560 117 95 85
-0.1913 -0.3849 0.3982 98 93 90
0.1394 -0.0054 0.7142 115 82 64
0.2027 -0.3004 0.3361 80 64 48
-0.2567 -0.0960 1.8919 120 115 106
-0.2034 0.0267 0.6512 93 68 53
0.1522 -0.1482 0.7815 103 79 62
-0.3203 0.1168 0.9860 170 162 155
-0.0066 -0.3834 0.3993 117 100 89
0.1066 -0.1997 1.1046 99 76 60
0.0370 0.1028 0.9103 133 132 128
0.2648 -0.4068 0.3367 121 117 116
-0.2896 -0.3584 0.4063 104 102 99
-0.0730 0.0046 1.0436 134 94 73
0.3356 -0.2659 0.2606 96 82 70
0.1639 -0.1243 0.9253 112 91 77
0.1268 -0.2514 1.4549 103 80 64
-0.1316 -0.3488 0.3881 86 76 65
0.1949 -0.2886 0.5319 113 95 83
0.2893 -0.2111 0.2648 92 71 53
-0.0392 -0.3495 0.3713 86 68 54
0.1416 0.0063 1.1202 122 89 71
0.0083 -0.3433 0.3727 85 69 53
-0.3819 0.1033 1.1330 143 132 125
0.1080 -0.3433 0.3454 95 76 62
-0.0393 0.0573 1.2411 130 92 75
-0.1878 -0.0222 0.9612 122 86 68
-0.0401 0.0078 0.3763 130 90 67
-0.2403 -0.2287 0.4346 88 72 62
0.0262 0.0300 0.9759 130 93 72
0.1424 -0.3380 0.3556 80 67 51
0.1443 -0.2777 1.7010 96 85 86
-0.1410 -0.3320 1.6574 98 82 66
-0.3577 -0.0037 1.4151 88 68 52
0.0615 0.0613 1.2230 132 95 78
-0.1432 -0.2968 0.3824 85 76 65
-0.1875 -0.1537 0.4278 82 62 44
-0.2095 -0.2732 0.5915 81 63 47
0.0716 0.2275 1.7457 124 103 96
0.3036 -0.3029 0.3252 102 81 65
0.0311 -0.3064 1.0175 85 68 52
-0.1146 0.1620 0.2509 94 91 87
0.0839 -0.0059 1.3333 114 82 62
-0.2814 -0.2627 0.3968 111 110 103
0.2623 0.0553 0.4391 128 94 76
0.2064 -0.2588 0.3325 74 61 47
0.1100 0.0212 1.6734 102 80 62
0.3853 -0.2424 0.3214 90 88 86
-0.1318 0.1285 0.6238 115 109 104
-0.3668 -0.0681 1.0306 87 67 52
-0.1194 -0.1202 0.2483 89 67 49
-0.2307 0.2167 1.7364 135 121 114
-0.3681 -0.0102 1.0748 92 70 54
-0.2679 -0.1144 1.4439 89 69 52
-0.2099 -0.1735 0.2120 84 68 55
-0.1230 -0.4339 0.5600 89 71 55
-0.1829 -0.2071 0.3818 80 62 44
-0.3532 -0.1304 1.2942 97 77 61
-0.0781 0.0772 1.0307 134 98 79
-0.1524 -0.1996 0.3665 87 66 48
-0.0606 -0.2979 1.5402 83 70 54
0.3000 -0.2991 0.3768 101 77 60
-0.1183 -0.1877 0.3499 90 68 52
-0.2352 0.0999 1.2867 124 91 72
0.0641 -0.2822 0.7269 104 75 55
0.3416 -0.2014 0.3109 106 86 71
0.0870 -0.2470 1.5645 104 82 65
0.0255 0.0557 0.4663 130 93 70
0.1821 -0.1176 0.7220 89 60 42
0.4058 -0.1895 0.2840 97 93 86
-0.2045 -0.0718 0.8975 78 58 42
-0.0945 0.0085 0.3226 120 85 63
0.1108 -0.2790 0.8549 101 78 61
-0.1398 -0.2852 1.7290 82 70 54
-0.3592 -0.3370 1.1074 143 130 127
0.0800 -0.4322 0.5210 88 69 54
0.4332 -0.2317 0.2966 97 97 93
0.4076 0.0798 0.2783 116 117 114
0.2939 -0.1541 0.3134 98 74 56
0.0508 -0.3050 0.3092 81 64 48
0.1693 -0.0252 0.5117 109 78 59
-0.2384 -0.0250 0.3737 192 197 218
-0.3314 -0.2071 1.0869 91 70 54
-0.1787 -0.0101 0.3481 87 65 49
-0.1636 -0.3022 1.4484 80 67 51
-0.1651 -0.3144 0.1868 83 66 51
-0.2144 -0.0743 0.5154 93 79 70
-0.0209 0.0048 0.2313 115 71 53
-0.0060 -0.3454 1.5464 96 79 63
-0.1620 0.0407 0.2381 90 67 49
0.0981 0.1173 1.6152 107 82 63
0.2066 -0.3049 0.3940 75 62 47
0.0835 0.1070 0.1609 126 96 74
-0.1195 -0.2783 1.1209 83 68 53
0.2077 0.0025 0.3011 128 85 64
-0.1839 0.0069 0.8028 88 64 49
-0.0233 0.0567 0.8785 134 95 75
-0.3239 -0.3600 0.9291 130 133 141
-0.1755 0.0480 0.3412 96 71 54
-0.1003 0.0395 0.3173 114 81 61
0.4058 0.0824 0.1879 113 113 111
-0.0518 -0.4172 0.7898 81 67 53
0.0549 0.0415 0.3026 129 90 67
-0.1962 -0.1292 0.2193 83 66 49
0.0487 -0.3439 1.1330 111 90 74
0.2327 -0.3393 0.4494 115 86 68
0.1539 -0.0796 1.6571 118 97 86
0.0823 -0.1808 1.2291 92 72 52
0.1653 -0.0253 0.4255 131 89 67
0.0517 -0.2572 0.3491 66 53 39
-0.1054 -0.4531 0.3924 121 125 125
0.1046 0.0072 1.5786 97 76 58
0.1026 0.0380 0.3081 130 91 69
0.1443 0.0409 0.2985 127 88 66
-0.0857 0.0179 0.8408 132 92 70
0.1923 0.0284 0.1998 130 92 71
-0.1803 -0.0055 0.3971 89 66 49
0.1493 -0.4490 0.7690 114 98 88
0.1399 -0.3388 0.8015 109 84 73
0.0310 -0.3232 0.9705 88 69 51
0.1588 -0.0523 0.4697 122 87 62
0.2509 0.0295 0.2827 126 89 68
0.2952 0.0428 0.2855 114 87 70
-0.3092 -0.2057 1.8793 144 140 137
0.3897 0.0369 0.2614 120 102 93
0.1978 -0.3090 0.2889 81 65 48
0.1599 -0.4734 1.8566 157 148 142
-0.0423 0.1044 0.3096 130 92 70
-0.2236 -0.0038 1.8244 95 77 60
0.1027 0.0930 0.3016 133 93 74
-0.2237 -0.1982 0.3909 88 71 59
0.0582 -0.5735 0.4454 110 100 94
0.1580 -0.2436 1.8635 106 85 72
-0.1800 -0.1965 0.4708 82 62 45
0.1655 -0.1906 0.6020 104 73 54
-0.3222 -0.0362 0.9429 86 67 53
0.0857 -0.3197 0.2067 83 65 49
-0.0678 -0.4656 0.6410 94 76 59
-0.2984 -0.4276 0.6943 121 112 109
-0.1357 -0.3597 0.9885 99 80 64
0.1301 -0.2608 1.0586 103 82 65
-0.2528 -0.4191 0.6543 80 66 54
0.2559 0.0024 0.3400 124 87 65
-0.2106 -0.4130 0.6590 91 77 64
0.0770 0.0745 1.7197 93 74 57
-0.1085 -0.4169 0.6477 83 68 53
-0.4052 -0.1780 1.0346 116 98 88
-0.1847 -0.3408 0.4915 86 70 56
-0.0562 -0.4217 0.6433 81 66 52
-0.0391 0.0923 0.8533 123 107 98
0.0880 -0.4242 0.6228 89 69 53
-0.1968 0.0005 0.6956 98 69 53
-0.2082 -0.4601 0.6567 96 86 76
-0.4330 -0.0988 1.1451 102 84 71
0.1434 -0.4454 1.8682 151 145 141
0.1311 -0.4187 0.6129 93 77 62
0.2512 -0.2569 0.3257 77 63 48
-0.2442 -0.3669 0.6493 89 69 54
-0.2771 -0.2761 0.9551 84 67 53
0.2845 -0.2689 0.1685 84 66 50
-0.1672 -0.3717 0.6373 90 68 52
0.1550 -0.1978 1.6310 128 106 99
0.1273 -0.1260 0.9363 98 76 59
-0.1168 -0.3914 0.6370 78 62 49
-0.2371 -0.2493 0.7423 88 69 53
0.1328 -0.3676 0.6091 104 81 64
-0.1007 -0.4159 0.7473 83 68 53
-0.2564 -0.3286 0.6517 75 57 41
-0.2183 -0.3202 0.6485 84 65 48
-0.1751 -0.3138 0.6377 85 65 48
0.1215 -0.3235 0.6010 102 77 59
0.1629 -0.3468 0.5802 109 86 72
0.1166 -0.2409 1.8334 104 85 68
0.1215 -0.2723 0.5377 97 71 52
-0.2191 -0.2768 0.6291 82 62 46
0.1431 -0.5059 0.4493 112 110 109
-0.1772 -0.2670 0.6301 88 67 49
0.1016 -0.2676 0.6006 89 66 48
0.1694 -0.1854 0.4889 109 81 62
-0.1213 0.2245 1.7824 142 109 93
-0.2598 -0.2213 0.6267 98 81 73
0.1911 -0.1608 0.6270 115 97 87
0.1889 -0.0485 0.6371 120 86 71
0.1441 -0.5353 0.7408 152 143 138
-0.2222 -0.1868 0.8886 72 55 40
-0.2790 -0.4205 0.9182 111 95 89
0.1936 -0.2677 0.2842 76 62 47
-0.2148 -0.2214 0.6416 83 64 47
-0.1746 -0.2211 0.6259 89 68 51
0.1133 -0.0815 1.2894 101 78 61
0.0360 0.0307 1.0222 133 93 73
0.1273 -0.2182 0.5896 99 74 55
0.1236 0.2104 1.7302 178 166 168
-0.2558 -0.1570 0.6500 96 79 68
-0.1699 0.1273 0.6708 121 118 115
-0.2513 -0.0050 1.5218 95 76 60
0.0927 -0.1716 1.4001 98 79 65
0.1605 -0.3868 1.0178 81 76 68
0.1346 -0.1711 0.5842 101 73 53
0.1749 -0.0735 1.8611 104 81 66
-0.2469 0.0176 1.2084 129 93 71
-0.2893 -0.1187 0.6377 90 77 63
-0.3898 -0.0277 1.2391 87 66 50
-0.2490 -0.1134 0.6320 85 70 61
-0.1750 0.0542 1.3913 115 79 63
-0.1690 -0.1117 0.6054 87 65 48
-0.1336 -0.1051 0.6073 93 64 48
0.0276 0.1827 1.8121 138 103 83
-0.1410 -0.4374 0.8573 83 67 53
-0.0728 0.0688 1.3350 123 89 71
0.0716 0.0726 0.9105 130 102 87
0.1313 -0.1288 0.5781 98 73 53
-0.1176 -0.2716 1.9034 147 144 134
0.1474 -0.2869 0.8083 109 84 70
0.2269 -0.1043 0.5384 143 115 99
0.3022 -0.0994 0.5555 146 125 111
0.0941 0.0382 0.6124 119 85 65
0.0587 -0.3432 0.4178 68 55 40
0.3602 -0.1189 0.5346 133 135 137
-0.2583 -0.3430 1.4450 81 73 54
0.1071 -0.2906 1.2104 95 75 59
-0.2057 -0.0721 0.6053 85 64 48
0.1096 0.1036 0.3943 129 95 79
-0.1749 -0.0676 0.5977 87 65 47
-0.3335 0.0807 1.3650 135 116 106
0.1293 0.0210 0.9560 128 89 70
-0.2435 0.0262 1.6698 86 67 50
-0.1338 -0.0784 0.6052 90 65 47
0.0896 -0.1059 1.8464 100 79 62
0.0998 -0.0737 0.5844 94 70 50
-0.0531 0.0480 1.1368 130 92 73
0.0925 -0.0923 0.9052 91 70 52
-0.0585 -0.5160 0.8957 130 108 93
0.3157 -0.0940 0.5349 140 127 121
0.1198 -0.3510 0.2569 99 79 60
-0.2927 -0.0155 0.6284 147 145 141
0.3759 -0.2515 0.2227 81 66 51
-0.2131 -0.0243 0.5985 83 64 47
-0.0649 0.0334 1.0341 134 94 74
-0.1817 -0.0566 0.4035 83 62 45
-0.1732 -0.0139 0.5937 88 64 47
0.1282 -0.0890 0.4929 88 64 44
-0.0687 -0.0110 0.5963 146 101 78
0.1114 0.0689 1.2657 141 118 108
0.0053 -0.5415 0.5473 130 126 125
-0.0202 -0.0118 0.5878 135 96 72
0.1060 -0.1478 1.1410 101 78 61
-0.1649 0.0973 0.7336 100 85 75
0.0396 -0.0111 0.5802 134 93 70
0.1156 -0.2040 0.7476 94 71 54
0.0777 -0.3817 1.9183 110 107 105
0.0947 -0.0190 0.5604 117 82 61
0.2239 -0.0128 0.5535 141 108 91
0.1788 0.0885 0.6402 123 120 119
0.3072 -0.0423 0.5425 145 118 107
0.3729 -0.0076 0.5319 124 118 115
-0.1830 -0.4837 0.8668 95 78 66
0.0781 -0.3327 0.8698 95 71 55
-0.0124 0.0258 0.5687 135 94 73
-0.1386 -0.2943 1.6993 90 77 61
0.0820 0.0207 0.5600 127 88 67
0.2324 0.0205 0.5325 140 105 88
0.0730 -0.3042 0.8279 92 68 50
0.3446 0.0202 0.5248 132 124 120
-0.2064 0.0754 0.5973 91 73 63
0.0755 0.0899 1.8218 93 73 55
0.1425 -0.1983 0.7399 103 76 58
-0.4249 -0.2446 1.0093 197 199 202
-0.1962 -0.0854 0.1559 82 64 50
-0.1642 0.0802 0.5881 110 86 72
-0.0592 0.0717 0.5651 129 93 73
0.1339 0.0654 0.5468 119 87 69
-0.2235 0.0028 1.3616 113 78 61
-0.0615 -0.0163 0.8659 136 99 77
0.1678 0.0735 0.5423 131 98 78
-0.0965 -0.3001 1.1837 84 66 53
0.2248 0.0553 0.5356 134 103 87
0.1504 -0.1649 1.3550 122 101 91
-0.2694 0.0367 1.0124 133 95 74
-0.2495 0.1475 0.5892 234 227 195
0.0974 0.0972 0.7510 127 104 91
-0.0891 -0.3635 0.9529 87 69 56
0.1264 -0.0114 1.0234 111 81 63
-0.2007 0.1147 0.5805 121 117 114
-0.1564 0.1329 0.5602 108 104 100
-0.2266 0.1791 1.4021 155 150 147
-0.2584 0.1776 0.5657 249 236 199
0.0067 -0.5584 0.7051 111 99 95
0.1294 -0.3421 1.5259 131 124 123
0.0420 -0.5430 0.6860 92 82 77
0.1447 -0.5100 0.6691 124 121 117
-0.0774 -0.4677 0.5443 106 90 77
-0.1709 -0.2834 0.5368 87 67 49
0.1085 -0.5780 0.7142 114 108 102
-0.0079 0.0811 0.1704 124 92 73
0.1339 -0.5486 0.6869 125 124 122
-0.2456 -0.0896 1.5863 90 70 54
-0.1962 -0.5053 0.7093 105 94 87
-0.1730 -0.3482 1.8029 98 81 64
-0.1340 -0.4787 0.5122 113 99 92
0.0010 -0.4921 0.6963 114 97 85
0.0998 -0.4388 0.8275 94 76 61
0.0279 -0.4191 1.3067 84 72 64
0.0828 -0.3114 1.0195 94 77 61
-0.1430 -0.3792 1.6749 93 76 59
-0.1103 -0.2966 1.1346 84 67 53
-0.2486 -0.4532 0.7191 90 81 77
0.0033 -0.4889 0.7942 99 78 61
0.0145 -0.3932 1.5502 138 127 124
0.2014 0.0677 0.8413 119 112 107
0.1019 -0.0010 1.1790 117 85 67
-0.0578 -0.4561 0.6959 87 70 54
0.2740 -0.2435 0.4166 85 69 54
-0.0070 -0.4573 0.6894 87 69 53
-0.3246 0.1830 1.7197 124 116 109
-0.0154 0.0409 1.0331 134 96 76
0.1352 -0.1506 1.0887 103 78 60
-0.1938 0.0233 1.2081 129 91 71
0.0899 -0.4582 0.6804 97 76 60
0.1382 -0.4607 0.6774 112 101 93
0.1982 -0.4424 0.6703 94 91 86
-0.1076 -0.4140 0.6971 81 67 52
-0.0145 -0.4221 0.6964 84 70 54
-0.4081 -0.2669 1.0659 140 129 122
-0.2285 0.0781 1.7109 90 69 54
0.0452 -0.4248 0.6807 84 68 54
-0.2290 0.1266 1.7133 89 70 53
0.1344 -0.3065 0.6970 105 73 57
-0.2173 -0.0878 1.6220 92 68 54
0.0929 -0.4145 0.6680 90 68 52
-0.2108 -0.1381 1.6319 93 68 55
-0.1583 -0.0057 0.2394 89 66 47
0.0013 0.0031 0.7299 136 95 73
0.1296 -0.4156 0.6644 99 81 67
0.1834 -0.4052 0.6702 119 109 107
-0.1663 -0.3675 0.6934 87 66 51
0.0989 -0.3695 0.6657 95 69 52
0.2019 -0.3658 0.6465 119 115 112
-0.3942 -0.2601 1.1111 104 88 78
-0.2046 -0.3092 0.6950 83 59 45
0.1310 -0.3159 0.6505 100 75 59
-0.2009 0.0968 1.2701 129 95 77
-0.2356 -0.2696 0.6993 84 62 47
-0.2110 -0.2711 0.6936 82 59 44
-0.1658 0.0349 0.6353 106 77 59
0.0965 -0.2639 0.6479 96 69 52
-0.2083 -0.2158 0.6762 84 63 48
0.0734 0.1899 1.8093 138 101 82
-0.2766 0.0105 0.7428 255 255 220
-0.1292 -0.2035 0.6793 89 57 44
0.0968 -0.2083 0.6421 98 73 56
-0.1224 -0.3206 0.9850 90 71 55
-0.1706 -0.2758 0.6768 92 66 51
0.1353 -0.2131 0.6405 100 73 54
0.1059 -0.0831 1.8714 90 71 55
-0.0525 0.1001 1.4098 104 71 54
0.0729 -0.3596 0.7348 96 72 53
-0.1445 0.0798 1.0872 131 94 75
0.1688 -0.2175 0.6376 100 75 55
0.0082 0.1703 1.6726 138 102 81
-0.2065 -0.1703 0.6645 85 63 47
-0.1734 -0.1623 0.6670 90 65 49
-0.2574 0.0485 1.8754 105 92 79
0.0900 0.0358 1.0233 115 86 71
-0.2519 -0.2947 1.1510 87 66 53
0.2655 0.0905 0.3344 125 95 76
-0.2558 -0.0897 0.6787 147 134 117
0.1118 -0.1168 0.6391 100 72 51
0.1412 -0.1481 1.8847 131 127 120
0.1340 -0.1200 0.6231 98 73 54
0.0742 0.1640 1.3689 172 175 176
-0.3588 0.0846 1.1190 134 120 113
-0.1518 -0.4125 0.7574 85 69 54
0.3170 -0.0998 0.5891 138 140 140
-0.3675 -0.2113 1.0595 90 70 55
-0.2598 -0.0633 0.6549 85 71 64
-0.1972 -0.0668 0.6577 85 62 46
0.0897 -0.0743 0.6391 94 70 51
-0.2716 0.1233 0.8994 94 91 84
0.1392 -0.0660 0.6134 100 73 54
-0.0251 0.0669 0.5765 133 96 74
0.1053 -0.4277 1.0181 84 80 72
0.2241 -0.0678 1.8748 151 147 142
0.1732 -0.0669 0.6149 105 79 61
0.2402 -0.0632 0.5927 144 128 120
-0.1623 -0.0635 0.6533 91 66 50
-0.1975 -0.0105 0.6546 87 64 48
-0.0131 -0.4567 0.6465 83 66 50
-0.0729 0.0268 0.9796 132 93 73
-0.1714 -0.0125 0.6507 92 67 50
-0.2766 -0.1975 0.1591 94 95 90
-0.0096 0.0006 0.6409 136 94 69
0.3928 -0.0330 0.5619 121 121 121
0.1570 -0.1425 1.1798 110 87 70
-0.2726 0.0440 0.6600 107 105 102
0.1423 0.0012 1.8724 119 105 94
-0.3184 -0.0291 0.6891 149 150 148
0.1321 0.0221 0.6073 122 90 72
-0.1556 -0.3324 1.6059 96 80 64
0.1911 0.0214 0.6022 129 91 72
0.0598 0.2186 1.7004 140 109 93
-0.3763 0.0665 1.2736 117 101 94
-0.1924 -0.3560 1.3097 125 100 86
0.2196 0.0358 0.5930 131 111 102
-0.2894 -0.4534 1.8365 119 124 127
0.1485 -0.0958 1.1819 103 79 62
-0.2545 0.0792 0.6354 184 182 161
-0.0939 -0.2917 1.6317 82 69 53
0.2893 -0.3114 0.2253 96 73 55
-0.1166 0.0833 0.6255 130 98 82
0.1365 -0.0023 0.2108 126 77 58
-0.4517 -0.2446 1.0705 157 118 99
-0.0578 0.0717 0.6284 132 94 74
0.0366 0.0740 0.6074 132 93 72
-0.2250 -0.3298 0.3527 98 97 93
-0.2028 0.1213 0.6371 226 224 207
0.0982 -0.1127 0.5685 93 69 50
-0.1700 0.1322 0.6334 116 113 110
-0.2261 -0.2897 0.8525 80 62 47
-0.2130 0.2317 1.4422 148 139 135
0.1954 0.1179 0.6101 122 122 122
0.0490 -0.5804 0.7429 115 112 106
-0.1820 0.0518 0.7928 98 73 57
0.3488 -0.0146 0.2722 117 83 65
-0.0060 0.0423 0.6684 132 92 71
-0.2324 -0.4914 0.7745 93 84 77
-0.1610 -0.4948 0.7604 112 103 96
-0.1135 -0.4940 0.7638 100 84 72
0.1127 -0.0370 1.2285 100 77 59
-0.2638 -0.3998 0.4535 106 106 105
0.0026 -0.4959 0.7594 130 115 105
-0.2366 -0.0894 0.4170 88 76 69
0.0993 -0.4982 0.7430 106 88 78
-0.0583 -0.4970 1.5657 158 154 150
0.1445 -0.4981 0.7174 117 109 104
0.1051 0.0171 1.6280 101 77 61
-0.2776 -0.4569 0.7824 120 114 109
-0.1037 0.0799 0.6731 132 96 76
-0.2333 -0.4607 0.7709 89 74 65
-0.1478 -0.3276 1.7011 94 81 65
-0.1036 -0.4436 0.7510 84 67 51
0.0968 -0.2111 1.0057 94 74 58
-0.2454 -0.2516 1.6015 84 66 51
-0.0059 -0.4441 0.7436 84 68 52
0.1755 -0.3297 0.3976 86 71 54
0.1294 -0.4195 0.9713 134 118 106
0.0473 -0.4529 0.7345 90 72 56
0.1367 -0.4588 0.7209 106 93 83
-0.0567 0.0764 0.6679 130 92 71
-0.1275 -0.1085 0.6571 89 62 47
0.0327 -0.0281 0.8066 128 87 67
-0.0034 -0.4153 0.7391 84 69 55
-0.2336 -0.1113 1.7909 93 75 58
0.0497 -0.4054 0.7310 83 65 50
0.0997 -0.4112 0.7183 95 73 57
-0.2083 -0.3425 0.7479 83 64 46
-0.0334 -0.4417 0.8938 85 70 55
0.0989 -0.3659 0.7179 96 70 54
-0.1691 -0.1623 0.7040 87 61 45
0.1325 -0.3477 0.7004 108 81 68
-0.2885 -0.0859 0.9309 70 54 40
-0.0150 0.0749 0.2708 129 102 88
0.2501 -0.3048 0.2826 84 67 50
-0.3909 -0.2218 1.0829 199 194 194
-0.2452 -0.3087 0.7476 81 64 48
0.0240 -0.4305 0.9377 96 78 62
-0.1707 -0.2920 0.7214 90 70 52
0.0987 -0.3072 0.7098 98 71 54
-0.0761 0.0277 0.9360 131 92 71
-0.0064 -0.5408 0.5919 130 127 123
-0.2062 -0.2492 0.7497 83 63 46
-0.2345 0.3127 1.8189 255 255 253
-0.1740 -0.2546 0.7522 95 71 55
-0.0880 -0.4751 0.8571 104 83 66
0.0601 -0.2461 0.7055 104 75 54
0.1057 -0.2565 0.6979 94 66 50
0.1321 -0.2530 0.6948 101 71 54
-0.0198 0.0946 0.4558 133 111 97
0.1037 -0.2242 0.5844 93 69 51
-0.2367 -0.2010 0.7426 87 65 51
0.1053 -0.0684 1.4476 86 66 50
-0.2856 0.1050 1.2469 148 127 115
-0.1993 -0.2051 0.7304 83 62 46
-0.1656 -0.2031 0.7205 85 61 44
0.1057 -0.2149 0.6901 99 72 56
0.1099 -0.1611 0.6945 95 68 52
0.3031 -0.2940 0.4690 93 80 68
0.1360 -0.1528 0.6803 100 72 54
-0.1366 0.0107 0.4451 110 79 59
0.1761 -0.1546 0.6728 105 78 61
0.1661 0.0119 0.8059 120 89 71
-0.1526 -0.0532 0.3457 84 63 45
-0.2857 -0.1104 0.7061 92 75 65
0.1570 0.0205 1.2165 126 91 78
-0.2186 -0.4378 0.5140 98 88 78
-0.1735 -0.1166 0.7076 86 59 44
-0.1146 -0.1144 0.6910 86 60 45
0.1047 -0.1130 0.6838 94 68 54
-0.1963 -0.0480 0.7660 89 63 48
-0.3014 -0.0464 0.7314 209 206 188
0.1024 0.1645 0.8626 121 121 121
-0.2616 -0.0491 0.7302 87 73 66
0.1280 -0.1552 1.0391 105 82 65
-0.1408 -0.4726 0.8630 98 78 60
-0.3871 -0.1334 1.2380 87 68 52
-0.1863 -0.0640 0.7145 84 58 44
0.2938 -0.2302 0.4984 107 92 83
0.0641 0.0145 0.8190 130 91 71
0.2033 -0.2905 1.2490 177 173 170
0.0245 0.0214 0.5226 132 93 71
-0.1622 -0.0582 0.6992 88 60 45
0.1360 -0.2033 1.0940 109 85 68
-0.3306 -0.1088 1.1106 94 70 51
-0.1968 -0.0138 1.7788 97 77 59
-0.1105 0.0074 0.6833 132 91 68
-0.1141 -0.3096 1.4482 87 73 57
-0.1603 -0.2695 1.1370 83 64 50
-0.3726 0.0764 0.9831 131 126 129
0.2778 -0.2382 0.4703 92 72 56
-0.0659 0.0103 0.6729 132 93 69
-0.0221 -0.4275 0.5376 83 68 53
0.1370 0.0966 0.6515 123 109 101
-0.1503 0.0085 1.1520 129 85 66
-0.0039 0.0023 0.6730 141 98 75
0.2496 -0.0100 0.6627 138 140 140
-0.2798 0.0367 0.6990 113 110 109
-0.2424 0.0361 0.7088 126 119 115
0.2667 -0.0633 0.3000 112 78 57
0.1504 -0.2793 0.8496 109 82 64
0.2782 -0.1292 0.5136 108 88 74
-0.1097 0.0440 0.6850 133 94 72
-0.2693 -0.3573 0.9560 141 115 112
0.1088 -0.0828 1.6409 101 76 61
0.0443 0.0398 0.6671 131 91 70
-0.3304 -0.0621 1.0267 101 78 61
0.3049 -0.0888 0.4378 103 77 58
-0.2510 0.1004 0.7020 172 160 144
-0.1913 0.0752 0.6843 92 69 57
-0.2463 -0.3633 0.6039 91 75 62
0.2646 -0.2581 0.3687 80 64 49
-0.1627 0.0954 0.6903 110 98 91
0.0481 0.0836 0.6653 131 93 75
-0.2176 0.1403 0.6762 153 151 148
0.1893 -0.0942 0.6699 120 105 97
0.0662 -0.4395 0.8795 91 75 60
0.1462 -0.4345 0.8886 108 89 75
-0.1260 0.1429 0.6929 112 110 106
0.1498 -0.1054 0.7222 102 73 56
-0.2359 -0.1274 0.9076 67 49 35
-0.0789 -0.3088 1.7949 86 74 58
-0.1477 -0.5444 0.7982 89 74 68
0.0033 -0.5329 0.7933 110 106 101
-0.1201 -0.0233 0.1858 99 73 54
0.1399 -0.5428 0.7846 134 130 125
-0.3568 -0.2648 1.0155 88 70 56
0.1632 -0.1255 0.6064 103 77 56
-0.0859 -0.4846 0.8141 113 89 71
0.1054 -0.5015 0.7879 113 96 85
0.0680 -0.0136 1.2794 127 90 70
0.0440 -0.2960 1.1709 84 68 53
0.1542 -0.5032 0.7853 128 123 120
0.2786 -0.0959 0.3543 94 73 51
0.0855 0.0680 0.9991 141 114 103
-0.2776 0.1778 1.6098 88 68 50
-0.2919 -0.4501 0.8145 103 100 94
0.1247 -0.4426 1.3532 65 64 57
-0.1311 -0.4183 0.9475 85 69 54
0.0291 0.1805 1.7698 135 99 79
-0.3666 0.1260 1.1010 167 161 155
-0.1486 -0.4419 0.8043 86 69 53
0.1087 -0.1028 0.7756 99 75 57
-0.1491 -0.3962 1.6038 132 121 119
0.2166 0.0070 0.5997 152 124 109
-0.3653 0.1025 0.9513 188 192 208
0.1656 0.1645 1.7933 161 145 137
-0.3659 -0.0173 1.3884 89 69 52
0.0714 0.0833 0.9588 151 136 128
-0.0975 -0.4417 0.8034 85 68 53
0.0991 -0.4474 0.7809 97 77 62
-0.1008 -0.3488 1.5623 106 86 69
-0.1489 -0.4137 0.8050 84 69 55
-0.2713 -0.4099 0.8026 124 127 122
-0.2380 -0.3908 0.8128 84 67 54
-0.1840 0.0413 0.2891 99 72 58
-0.1553 0.0021 0.7450 103 74 56
-0.2325 0.1121 1.6162 90 68 53
-0.0984 -0.4132 0.7812 83 69 55
0.1187 -0.2710 0.9579 96 73 57
-0.1827 0.0748 0.2924 89 66 51
0.0735 -0.3920 0.7654 93 68 50
-0.2213 -0.2604 1.8826 86 70 57
0.1038 -0.4029 0.7734 99 73 57
-0.2701 -0.3628 0.8307 85 70 54
-0.1932 -0.0561 0.3150 88 68 53
-0.1540 -0.0237 0.8549 101 72 52
-0.1777 0.1058 1.4944 100 78 60
-0.1666 0.0084 0.4964 85 61 44
0.0677 -0.3431 0.7539 84 66 51
-0.2326 -0.1709 1.4471 102 81 64
0.1030 -0.3507 0.7654 100 73 56
0.1859 -0.1649 1.0351 154 143 140
-0.1555 -0.3012 0.7966 86 64 49
-0.2406 0.2203 1.6007 144 132 127
-0.1240 0.1851 1.4288 123 99 87
0.0705 -0.2885 0.7776 106 75 58
0.1010 -0.2990 0.7535 94 71 55
0.1361 -0.2906 0.7498 103 78 61
-0.0518 -0.0090 0.9148 138 96 73
-0.2296 -0.2385 0.7963 84 65 51
-0.3084 0.0934 1.0572 143 120 107
0.1545 0.0741 0.2426 128 82 66
-0.1422 -0.2556 0.7874 87 64 49
-0.1215 0.0449 1.3811 116 81 63
0.2944 -0.1779 0.1623 92 70 52
-0.1864 -0.2582 0.3354 89 76 62
0.1474 -0.0430 0.7668 103 78 61
-0.3622 0.0466 1.0633 98 72 55
0.0723 -0.2493 0.7583 105 76 57
0.1243 -0.3578 0.6597 104 76 59
-0.1474 -0.4651 0.9085 109 87 70
0.0273 0.2443 1.4581 160 147 142
-0.2005 0.0643 1.2046 125 88 71
0.1106 -0.2514 0.7533 97 73 55
-0.0904 0.0125 1.1952 126 87 67
-0.1625 -0.1301 0.2033 84 64 47
-0.0268 -0.2831 0.9856 80 64 48
0.1456 -0.2479 0.7451 105 79 60
-0.2190 -0.2683 1.0813 87 72 56
0.2588 -0.3346 0.4481 115 88 72
0.1619 -0.3716 0.4517 86 74 62
-0.2494 -0.1991 0.7878 88 69 55
-0.1968 -0.2026 0.7757 86 65 49
-0.2279 -0.1563 0.3851 83 66 54
-0.1260 0.0244 0.8929 131 91 71
-0.3654 -0.3194 1.0159 128 113 100
-0.1616 -0.1988 0.7689 91 68 51
0.0927 -0.0584 1.8437 99 78 62
-0.1724 0.0734 0.5472 94 73 61
-0.2398 -0.1508 0.7781 92 74 62
-0.2462 -0.2925 1.1949 86 69 54
-0.1542 -0.1473 0.7592 91 65 49
0.1157 -0.1535 0.7323 97 72 56
-0.1038 -0.2756 1.8480 83 71 54
0.1420 -0.1473 0.7278 97 68 51
-0.0865 -0.0134 0.9212 137 94 75
0.0955 -0.2956 1.1568 93 74 59
-0.1972 -0.1138 0.7604 86 63 47
-0.1585 -0.0928 0.7575 93 68 52
-0.1633 -0.0562 0.7468 89 66 49
-0.2965 0.0034 1.8788 106 90 78
0.0506 -0.5088 0.9238 108 96 87
0.2135 -0.2425 0.3879 71 59 46
0.0690 -0.0392 0.7214 117 84 62
0.1125 -0.0523 0.7137 99 72 55
0.1431 -0.0521 0.7156 105 79 63
0.0573 -0.4990 0.7472 97 80 67
-0.1928 0.0001 0.7486 88 64 48
-0.1932 0.1462 0.7856 159 155 151
-0.3280 -0.2072 1.0444 96 74 57
-0.1038 0.0091 0.7482 134 93 71
0.1031 -0.0023 0.7103 118 83 63
-0.0081 -0.3675 1.0397 131 117 106
0.2406 0.0136 0.6973 138 129 125
-0.2467 0.0480 0.7436 111 105 101
-0.0932 0.1734 1.6805 133 97 76
-0.3840 -0.1765 1.2902 88 69 53
-0.2117 -0.3741 0.6494 83 64 48
-0.1926 0.0594 0.7494 93 69 55
-0.4596 -0.2500 0.9732 197 207 218
0.0659 -0.2892 1.2697 85 71 55
-0.1511 0.0436 0.7401 109 78 60
-0.0034 -0.3816 0.1522 103 106 105
-0.2128 0.0293 1.0005 134 95 74
0.1137 -0.5411 0.4828 124 122 122
-0.0565 0.0487 0.7291 136 97 75
-0.0074 0.0463 0.7211 131 92 71
0.0654 -0.5849 0.8528 99 97 94
0.1432 0.0564 0.7106 133 92 73
0.1968 0.0317 0.6985 135 111 100
-0.3594 -0.1972 1.1993 92 73 56
0.3047 -0.1914 0.4573 100 77 59
-0.2432 0.1183 0.7575 120 117 114
-0.2210 -0.1149 1.8389 94 76 60
0.1052 -0.3738 0.9237 102 78 59
-0.1968 0.0875 0.7497 100 83 75
-0.2529 0.0802 1.4570 96 75 58
-0.2776 -0.1402 0.9293 64 48 36
-0.1088 0.0794 0.7229 130 93 71
-0.2342 0.1235 1.6665 88 68 51
-0.0054 0.0733 0.7085 129 90 69
-0.1931 -0.0819 0.8677 74 55 39
0.0969 0.0869 0.7062 132 97 79
0.1237 -0.2617 1.4057 102 79 61
-0.3433 -0.3242 1.2641 146 137 126
0.1406 0.0865 0.6972 128 97 82
0.2113 0.0759 0.7066 119 119 118
0.0835 0.2289 1.4566 163 152 150
-0.0535 -0.2990 1.1864 82 66 52
0.1092 -0.3407 0.4133 78 64 48
-0.2315 0.0597 0.8601 109 95 90
0.2454 0.0853 0.7135 116 116 115
0.1743 -0.2061 1.7317 102 78 58
-0.2480 0.1300 0.7400 255 255 250
-0.3349 -0.0164 1.3869 100 77 60
-0.1948 0.1427 0.7404 157 154 152
-0.1498 0.1415 0.7227 103 97 93
-0.1704 0.1137 0.4829 104 92 85
0.0816 -0.3837 0.8722 97 76 60
-0.2366 -0.5182 0.8785 100 99 97
-0.2379 -0.0437 1.5732 89 70 53
0.1313 -0.3945 1.1064 74 73 65
-0.2502 -0.0636 0.3120 172 171 190
-0.1844 -0.5413 0.8575 97 95 94
0.0494 -0.5231 0.8387 104 84 69
-0.1684 -0.2754 0.9938 85 68 52
-0.3013 0.1188 1.5087 93 100 87
0.1844 -0.5364 0.8410 129 130 127
0.1616 -0.3082 0.3978 78 63 48
-0.0322 -0.4800 0.8483 94 77 61
-0.1572 -0.0516 0.7959 89 64 48
0.0750 0.2237 1.8419 140 106 92
-0.1528 -0.4627 0.7061 90 72 58
0.0158 -0.4876 0.8358 103 83 66
0.0650 -0.4824 0.8415 99 78 62
-0.0844 0.0630 0.4225 120 86 65
-0.0986 0.1030 0.7716 122 102 89
0.1090 -0.0990 0.7283 96 72 54
-0.2615 -0.4545 0.8962 150 132 133
0.1839 -0.2093 1.2248 106 84 78
-0.0897 -0.4347 0.8487 85 69 54
-0.0387 -0.4349 0.8499 85 70 55
0.0126 -0.4424 0.8359 83 68 53
0.0471 -0.4938 0.7947 98 79 64
-0.1498 -0.0182 0.8826 126 87 66
0.3597 -0.0425 0.2242 108 85 73
0.0593 -0.4418 0.8335 87 70 54
-0.2192 0.0423 1.8666 95 77 61
0.1406 -0.4166 1.7037 118 115 118
-0.2863 -0.4015 0.8670 151 160 152
-0.2274 -0.3861 0.8558 83 66 52
-0.1846 -0.0486 1.4772 91 67 50
-0.2016 -0.3052 0.7489 86 66 50
0.0760 -0.4266 0.9308 94 74 58
-0.1971 -0.3941 0.8528 85 67 52
-0.1387 -0.2967 0.4219 79 67 54
-0.1266 -0.3918 0.8687 80 68 53
0.2748 -0.0412 0.3592 115 80 59
-0.0918 -0.4048 0.8263 81 69 54
-0.2309 -0.1317 0.4747 91 75 66
0.0023 -0.4077 0.8141 79 65 51
0.0765 -0.4004 0.8314 92 70 53
0.1020 -0.3888 0.8203 100 77 60
-0.3177 -0.2656 1.0526 89 73 58
0.1467 -0.3998 0.4874 130 128 125
0.1049 -0.1774 0.5888 101 72 50
-0.2771 -0.3413 0.8534 96 81 73
0.0823 -0.3388 0.8257 97 71 53
-0.2221 -0.1561 1.4858 86 67 50
-0.2209 -0.2257 0.1862 80 67 57
0.1063 -0.3450 0.8101 97 74 57
-0.1175 0.0339 0.5858 125 88 68
-0.1927 -0.2877 0.8391 82 64 47
-0.2726 -0.1784 0.8337 82 64 50
0.1344 -0.3017 1.0591 118 100 88
-0.2055 -0.1918 0.8396 77 59 42
0.0141 -0.3229 1.7367 86 73 56
-0.1112 -0.0650 0.3112 89 65 47
0.1131 -0.1971 0.7911 98 74 56
0.0660 -0.0569 1.6023 95 74 56
0.2117 -0.1879 0.7918 144 142 141
-0.2291 -0.2819 0.9503 80 63 49
0.0993 -0.3995 1.4394 147 147 147
0.2578 -0.0044 0.2405 128 89 68
-0.2077 -0.4159 0.7020 90 77 64
-0.2238 -0.1484 0.8331 77 59 43
0.1388 -0.0507 1.8726 101 84 68
0.1653 -0.1195 1.2869 117 97 81
0.1337 -0.0201 0.5632 108 77 57
-0.1922 -0.1322 0.8131 82 62 45
0.0585 -0.4477 0.7845 87 70 54
0.1891 -0.1038 0.7520 109 79 62
0.1569 -0.3284 0.9054 111 87 77
0.0556 -0.0295 0.7882 129 89 68
-0.0898 0.0053 0.7756 142 99 74
-0.0536 -0.3213 0.1662 96 88 78
0.0610 0.0032 0.7691 133 93 72
-0.0967 -0.3390 1.5986 95 78 62
-0.0712 0.0416 1.3827 112 77 59
0.1094 0.0047 0.7629 115 83 64
0.1315 -0.1083 1.8446 118 102 89
0.2368 0.0066 0.7489 135 129 127
-0.2256 0.2082 1.6394 103 83 72
-0.3643 -0.0090 1.1275 95 71 54
-0.1778 -0.3857 0.5351 85 67 52
-0.0019 0.0418 0.7648 132 92 72
-0.0802 -0.3792 0.9508 95 78 61
0.0582 0.0484 0.7657 126 90 71
0.1014 0.0557 0.7637 127 90 70
0.1514 0.1005 1.0949 175 176 177
0.1902 0.0469 0.7440 132 113 103
-0.2330 0.1795 1.7570 97 77 62
0.1670 0.0312 1.3523 122 97 93
0.1919 -0.4989 0.7613 138 136 134
0.1288 -0.1187 0.9863 99 76 59
0.2486 0.0721 0.7644 123 121 119
-0.3620 -0.0447 1.4223 92 75 63
0.0558 0.0076 1.2306 127 87 69
-0.2618 0.1189 0.7976 123 121 119
-0.1155 -0.2625 1.0347 83 67 53
-0.1559 0.1082 0.7841 133 123 117
0.0030 0.0175 1.1834 127 84 66
-0.0521 0.0875 0.7749 130 102 86
-0.0498 -0.4527 0.7460 86 69 54
