ply
format ascii 1.0
element vertex 1437
property float x
property float y
property float z
property uchar red
property uchar green
property uchar blue
end_header
-0.4342 -0.3765 0.9093 158 93 88
-0.4427 -0.1215 0.8332 154 87 84
-0.4786 -0.3845 0.8128 129 72 65
-0.6763 -0.2079 1.4428 145 86 81
-0.8697 -0.7097 0.6899 142 82 76
-0.9093 -0.7209 0.7065 144 85 79
-0.6970 -0.0910 1.3530 88 63 71
-0.9662 -0.5692 0.8273 140 82 77
-0.5637 -0.7515 0.6090 137 85 73
-0.4048 -0.1458 0.9759 235 161 166
-0.4750 -0.0867 0.9010 187 101 97
-0.9094 -0.8549 0.7288 133 82 79
-0.6259 -0.8181 0.6332 125 77 68
-0.6723 -0.8156 0.6309 120 75 66
-0.5476 -0.4384 1.6387 158 88 83
-0.9046 -0.8208 0.9263 157 84 91
-0.3189 -0.1101 0.6613 174 107 102
-0.7684 -0.8081 0.6606 121 76 67
-0.8190 -0.8061 0.6656 129 80 72
-0.6232 -0.8528 0.6244 128 88 79
-0.8159 -0.6188 2.0168 177 110 109
-0.7921 -0.8381 0.6398 139 88 79
-0.2546 -0.2721 0.7243 157 141 135
-0.5956 -0.6625 0.2839 87 67 58
-0.6071 -0.5987 1.4057 93 64 64
-0.7299 -0.4493 0.9274 183 108 111
-0.5556 -0.0736 0.7656 146 78 75
-0.8786 -0.8536 0.6759 131 82 75
-0.9160 -0.8565 0.6864 128 77 71
-0.4264 -0.6052 0.1507 129 80 71
-0.5014 -0.8842 0.5858 124 81 75
-0.7511 0.0680 0.7313 152 150 148
-0.7312 0.0275 0.7008 162 106 100
-0.7614 0.0170 0.7633 161 118 112
-0.4797 -0.4388 0.8507 147 85 76
-0.8562 -0.6732 0.7924 142 80 73
-0.5616 -0.2679 1.9650 148 88 89
-0.6350 -0.0105 0.6811 137 116 108
-0.7209 -0.7569 0.1470 122 107 98
-0.7000 0.0909 0.5015 135 94 88
-0.3361 -0.0609 0.6140 163 105 98
-0.2253 -0.4204 0.1702 146 94 87
-0.8623 -0.4223 1.0082 51 50 49
-0.3685 -0.0573 0.6235 168 95 89
-0.8279 -0.3946 0.9343 161 89 90
-0.4280 -0.0668 0.6349 174 99 91
-0.4763 -0.0598 0.6451 177 99 92
-0.5268 -0.0624 0.6487 167 92 86
-0.8807 -0.4984 1.3360 73 61 69
-0.6714 -0.1967 0.2013 156 88 83
-0.5797 -0.0626 0.6664 162 89 84
-0.2955 -0.3218 0.1701 164 92 85
-0.8111 -0.0538 0.7184 170 93 90
-0.6497 -0.2994 1.8398 232 173 181
-0.6801 -0.6139 1.8982 160 99 93
-0.4330 -0.1076 0.6310 181 97 92
-0.5144 -0.4282 1.5293 170 102 98
-0.7575 -0.1847 0.7893 140 82 74
-0.3411 -0.1530 0.6096 163 92 86
-0.3758 -0.1555 0.6100 150 85 77
-0.4758 -0.1453 0.6422 178 94 89
-0.7658 -0.1553 0.6903 130 78 71
-0.4308 -0.1564 0.9026 170 93 87
-0.7772 -0.0917 0.9158 186 102 101
-0.4960 -0.0487 0.1005 130 136 127
-0.6707 -0.0288 0.7304 157 90 86
-0.8166 -0.5025 0.5082 126 76 68
-0.8133 -0.1687 0.6989 152 95 89
-0.4889 -0.6624 0.3141 111 73 64
-0.5839 -0.3260 1.5277 162 94 90
-0.2485 -0.2032 0.5898 160 102 97
-0.2917 -0.2139 0.5953 166 130 123
-0.4876 -0.4459 0.5541 141 85 75
-0.8413 -0.1428 0.7440 175 157 151
-0.3427 -0.2080 0.6014 159 98 91
-0.5318 -0.5651 0.5553 140 82 71
-0.7458 -0.1964 0.6728 139 77 71
-0.7919 -0.7962 0.5573 125 77 68
-0.8101 -0.2206 0.6982 142 85 77
-0.5106 -0.0925 1.9997 187 126 128
-0.8530 -0.7062 0.2327 156 95 93
-0.6923 -0.2017 2.0589 193 140 145
-0.3287 -0.0715 0.6613 157 103 98
-0.2608 -0.1690 0.7404 177 119 116
-0.7246 -0.5059 1.4610 121 69 64
-0.6685 0.0213 0.7349 156 130 131
-0.8499 -0.2692 0.7002 157 90 87
-0.3972 -0.2988 0.5906 141 81 71
-0.4229 -0.3090 0.5999 134 75 66
-0.4648 -0.3063 0.6232 143 81 72
-0.3944 -0.3488 0.5910 137 76 69
-0.6915 -0.1239 0.8265 145 82 74
-0.4332 -0.3567 0.5997 137 79 69
-0.7101 -0.1984 1.0819 116 89 112
-0.3971 -0.3975 0.5836 159 94 87
-0.5485 -0.7743 0.7725 125 79 71
-0.6354 -0.0771 1.6504 149 96 91
-0.5081 -0.4061 0.6240 157 90 83
-0.4578 -0.5106 0.1795 134 81 71
-0.8974 -0.8253 0.8308 124 78 73
-0.7539 -0.5082 1.5811 138 85 82
-0.8597 -0.4224 0.6736 145 88 82
-0.4840 -0.4607 0.5922 146 84 75
-0.8211 -0.3581 0.6715 129 78 70
-0.5317 -0.2365 0.2572 144 80 73
-0.8667 -0.4584 0.6727 149 90 84
-0.5923 -0.1517 0.8186 181 92 88
-0.7093 -0.8456 0.9606 230 135 139
-0.5406 -0.1954 1.3532 106 93 123
-0.3959 -0.5202 0.5604 147 73 68
-0.8293 -0.5090 0.6641 137 81 73
-0.8501 -0.3475 0.5247 130 78 70
-0.6789 -0.4581 1.9602 139 85 85
-0.4957 -0.4167 1.1118 96 88 92
-0.8739 -0.5656 0.6485 140 85 77
-0.6390 -0.1644 1.1202 94 64 88
-0.9379 -0.5719 0.7908 139 81 76
-0.6818 -0.0766 0.8861 169 90 84
-0.4790 -0.6011 0.5905 143 83 73
-0.8361 -0.6127 0.6516 142 83 76
-0.4815 -0.6569 0.5698 137 78 69
-0.3985 -0.3620 0.3307 144 90 82
-0.5808 -0.3285 1.6097 143 82 76
-0.8775 -0.6587 0.6502 138 82 74
-0.7310 -0.4032 1.4634 145 84 79
-0.8699 -0.8299 0.9250 163 97 98
-0.5777 -0.7005 0.5975 141 82 72
-0.5761 -0.7936 0.8784 112 71 65
-0.8407 -0.7015 0.6341 142 82 76
-0.6380 -0.1517 1.3824 87 68 83
-0.9744 -0.6876 0.6541 150 141 136
-0.8403 -0.8238 0.8221 129 80 73
-0.4743 -0.4141 0.6056 139 80 71
-0.6607 -0.2225 1.9862 153 98 96
-0.4803 -0.1319 0.8897 179 93 89
-0.5744 -0.1580 1.9366 175 110 109
-0.8795 -0.7557 0.6343 140 81 75
-0.9192 -0.7643 0.6484 135 93 86
-0.8539 -0.4186 0.7270 109 67 64
-0.7186 -0.3464 0.9536 75 51 51
-0.4035 -0.6112 0.9343 252 160 170
-0.3819 -0.1952 1.9197 76 47 52
-0.5408 -0.8076 0.5714 133 81 71
-0.7143 -0.6477 0.2112 98 69 59
-0.7965 0.0095 0.8220 143 85 82
-0.4467 -0.5106 0.2269 135 82 72
-0.5806 -0.4370 1.6989 177 107 103
-0.8745 -0.8103 0.6234 129 83 74
-0.9144 -0.8146 0.6428 133 104 98
-0.6197 -0.1767 1.6854 168 107 104
-0.8104 -0.6675 0.7869 138 82 74
-0.7708 -0.1081 1.0051 151 108 127
-0.5455 -0.8503 0.5569 123 75 67
-0.6821 -0.7389 0.1367 111 114 108
-0.4076 -0.2178 0.6616 138 80 70
-0.4735 -0.5647 0.6384 149 85 77
-0.9057 -0.8426 0.6503 140 88 82
-0.5280 -0.0871 0.9120 189 102 99
-0.8410 -0.7137 0.3429 93 62 52
-0.5414 -0.8979 0.5420 121 86 80
-0.9193 -0.6044 0.9156 156 85 82
-0.5141 -0.6112 0.6851 141 83 73
-0.5879 -0.8951 0.5634 130 107 98
-0.8766 -0.8989 0.6244 152 89 81
-0.8293 -0.5601 0.7017 140 79 73
-0.5856 -0.9376 0.5487 130 96 85
-0.5522 -0.6362 0.4466 149 90 81
-0.4773 -0.1615 0.1071 148 93 82
-0.5311 -0.0249 0.6536 180 107 99
-0.7837 -0.4550 0.9703 69 53 56
-0.6217 -0.9642 0.5474 181 173 165
-0.7618 0.0744 0.6642 170 159 154
-0.6684 -0.3598 1.7718 191 126 128
-0.7562 -0.5646 0.8415 146 84 77
-0.5260 -0.1496 0.1235 149 96 87
-0.8404 -0.5820 0.3432 127 80 72
-0.4732 -0.6832 0.1027 107 74 63
-0.6228 -0.8379 0.8909 116 74 67
-0.5717 -0.1309 0.2324 148 104 96
-0.8208 -0.0126 0.6729 164 94 89
-0.4322 -0.4624 0.6348 147 90 79
-0.3953 -0.0550 0.5797 174 98 93
-0.5627 -0.1382 1.2127 89 82 101
-0.5170 -0.3226 1.1868 82 68 77
-0.8844 -0.7300 0.8538 133 79 72
-0.5849 -0.0537 0.6146 162 92 87
-0.5558 -0.1083 0.7425 168 92 87
-0.5754 -0.1256 1.9988 192 120 123
-0.9575 -0.7367 0.4596 123 122 116
-0.6152 -0.1030 0.7711 147 80 78
-0.6845 -0.0609 0.6366 156 84 79
-0.8723 -0.5024 0.9664 121 89 98
-0.4179 -0.1180 0.6790 175 95 90
-0.7648 -0.2465 0.5679 138 77 71
-0.5268 -0.1014 1.7318 168 103 101
-0.8917 -0.5760 0.3557 111 95 88
-0.7343 -0.1654 1.0989 123 93 113
-0.5237 -0.3177 1.1355 94 79 88
-0.7517 -0.2219 1.5557 172 106 107
-0.7337 -0.0564 0.6454 158 86 81
-0.8211 -0.0508 0.6524 174 93 90
-0.6629 -0.9442 0.7393 163 179 171
-0.3716 -0.2405 0.4938 134 82 74
-0.4583 -0.1442 0.6941 185 96 94
-0.3132 -0.1084 0.5506 162 105 99
-0.7548 -0.1960 0.4785 113 70 61
-0.8844 -0.7419 0.9049 143 79 76
-0.5379 -0.0984 0.6003 173 92 86
-0.4063 -0.4333 0.5349 152 81 74
-0.4428 -0.0845 0.8396 156 89 87
-0.7519 -0.2248 1.9906 170 106 108
-0.6648 -0.1617 0.2535 133 77 72
-0.5737 -0.8566 0.6104 132 93 83
-0.5799 -0.0958 0.6145 155 84 79
-0.8287 -0.4767 1.1278 64 51 57
-0.5468 -0.8015 0.5166 128 86 77
-0.6300 -0.0840 0.6122 140 77 74
-0.7388 -0.0989 0.6416 144 80 74
-0.6323 -0.7055 0.9271 245 141 149
-0.4403 -0.1539 0.5803 175 94 89
-0.4923 -0.1512 0.5839 178 95 91
-0.5278 -0.1933 0.1247 152 91 86
-0.5354 -0.1531 0.5890 177 91 88
-0.6578 -0.0672 0.7844 163 86 83
-0.7383 -0.7860 0.1188 127 126 120
-0.8694 -0.7640 0.6865 134 81 73
-0.7566 -0.7875 0.5024 115 75 66
-0.3531 -0.2817 0.9520 238 139 147
-0.7984 -0.2254 1.2672 70 44 49
-0.7148 -0.0145 0.8002 118 74 72
-0.7958 -0.1710 1.8444 169 119 120
-0.4633 -0.7301 0.9346 253 156 166
-0.6965 -0.2888 0.1027 137 79 73
-0.3207 -0.1935 0.5273 147 113 106
-0.7119 -0.1535 0.9892 82 51 61
-0.6977 -0.1128 0.2704 125 85 78
-0.4979 -0.1778 0.5877 178 94 89
-0.8673 -0.4919 0.4587 136 79 72
-0.7726 -0.5236 1.9303 174 107 109
-0.6734 -0.7433 1.7326 148 95 95
-0.7791 -0.2122 0.6283 136 80 72
-0.8291 -0.1885 0.6583 158 103 101
-0.8608 -0.5974 1.7908 222 184 184
-0.3004 -0.2647 0.5289 180 94 93
-0.3499 -0.2509 0.5517 154 98 90
-0.4428 -0.7008 0.9320 254 158 168
-0.3870 -0.2495 0.5559 145 83 73
-0.9731 -0.4829 0.9995 58 80 84
-0.4631 -0.0472 0.8031 168 100 93
-0.7605 -0.5653 0.2286 123 73 65
-0.4605 -0.2508 1.0277 86 71 86
-0.8669 -0.5120 0.6754 147 87 81
-0.7292 -0.2818 0.6381 145 79 75
-0.7359 -0.3867 0.9508 81 52 54
-0.8200 -0.3116 0.6347 144 80 76
-0.4055 -0.3369 0.5387 137 80 71
-0.7392 -0.1376 0.8874 136 78 72
-0.4381 -0.3530 0.5491 131 76 67
-0.4308 -0.2909 0.8637 137 76 68
-0.7903 -0.4835 1.1966 76 65 73
-0.5075 -0.1436 1.3103 99 82 97
-0.7348 -0.0868 0.8999 161 86 82
-0.7955 -0.3492 0.6207 136 79 72
-0.4939 -0.0991 0.5926 178 95 89
-0.6758 -0.1996 1.1818 163 120 146
-0.4747 -0.0303 0.6932 182 109 106
-0.4090 -0.3909 0.5354 151 84 77
-0.6130 -0.0337 0.7787 179 103 97
-0.4984 -0.4111 0.5597 145 82 74
-0.7672 -0.3360 1.2751 64 45 49
-0.4974 -0.0824 0.8011 153 84 80
-0.8465 -0.4034 0.6189 136 81 74
-0.4084 -0.2368 0.4505 116 72 64
-0.4827 -0.4885 0.8989 147 84 76
-0.7985 -0.4514 0.5975 141 80 74
-0.8455 -0.4554 0.6194 135 80 72
-0.5593 -0.6543 0.9872 142 90 95
-0.5377 -0.0598 1.7309 179 105 103
-0.7030 -0.5074 1.7779 174 109 108
-0.8081 -0.3774 0.8256 101 60 57
-0.8661 -0.4447 0.6215 156 92 89
-0.4797 -0.5566 0.5640 131 68 61
-0.5746 -0.1314 1.7256 176 110 109
-0.4252 -0.5422 0.1155 132 81 73
-0.4196 -0.5496 0.5091 154 87 79
-0.8455 -0.6088 0.2347 106 71 63
-0.5180 -0.3998 0.8750 142 81 71
-0.3763 -0.2193 1.1314 81 65 66
-0.4178 -0.2559 1.4859 170 99 101
-0.8459 -0.5423 0.6229 137 81 73
-0.4004 -0.2231 0.7161 143 82 74
-0.6190 -0.1068 1.4919 131 86 90
-0.8306 -0.6402 0.9027 162 86 83
-0.4137 -0.5800 0.5329 182 103 97
-0.4998 -0.3842 1.3683 109 85 97
-0.4496 -0.5944 0.5172 159 86 80
-0.4891 -0.6010 0.5292 145 84 74
-0.3837 -0.1960 0.9439 222 121 116
-0.5963 -0.5117 0.5667 143 80 70
-0.5384 -0.6039 0.5411 135 82 69
-0.7670 -0.5353 1.7120 186 111 112
-0.4787 -0.0307 0.6541 190 112 108
-0.6838 -0.1453 0.9413 218 112 121
-0.5320 -0.3490 1.3445 97 81 94
-0.8762 -0.6124 0.5930 138 83 74
-0.6068 -0.6885 1.2639 112 93 90
-0.7973 -0.3601 0.6611 137 80 73
-0.3470 -0.0809 0.9134 172 97 97
-0.6195 -0.2403 0.1375 150 84 77
-0.5815 -0.6522 0.5335 128 85 72
-0.8459 -0.6531 0.5932 142 82 75
-0.7784 -0.4764 1.8442 161 105 114
-0.7737 -0.1974 0.9425 158 83 86
-0.8006 -0.3369 0.8772 116 66 64
-0.7231 -0.3617 1.4781 152 84 80
-0.5249 -0.7954 0.9064 127 75 72
-0.8493 -0.0284 0.8440 185 103 97
-0.6210 -0.5918 1.4730 107 61 58
-0.8498 -0.8202 0.7822 128 85 77
-0.7906 -0.8063 0.6174 123 76 67
-0.5441 -0.7463 0.5141 136 84 73
-0.5816 -0.1374 0.8634 175 93 88
-0.7581 -0.3661 1.5312 153 89 87
-0.4232 -0.4041 0.1712 138 83 73
-0.7888 -0.7591 0.5620 122 73 65
-0.7593 -0.2596 0.6095 148 83 77
-0.8475 -0.7453 0.5693 134 80 71
-0.7989 -0.4016 0.6060 138 79 73
-0.7731 -0.0447 0.6647 142 85 78
-0.5143 -0.0483 0.9435 206 113 111
-0.4543 -0.5716 0.2126 135 83 73
-0.9337 -0.7530 0.6069 129 94 87
-0.9890 -0.7486 0.6185 135 147 139
-0.6927 -0.8056 0.5396 121 75 67
-0.5480 -0.4537 0.9777 74 51 55
-0.7804 -0.0157 0.6692 145 92 84
-0.9311 -0.8000 0.5930 140 100 95
-0.4990 -0.6280 0.8326 125 71 66
-0.4971 -0.5274 0.7886 147 85 76
-0.7524 -0.7383 0.9668 243 156 162
-0.5196 -0.7645 0.6726 137 83 73
-0.6947 -0.8455 0.5329 114 75 64
-0.7340 -0.8460 0.5482 126 87 78
-0.7953 -0.8444 0.5664 129 83 74
-0.8574 -0.8402 0.5572 141 83 77
-0.4936 -0.6761 0.8225 139 85 79
-0.8782 -0.8405 0.5763 136 94 87
-0.4694 -0.2605 0.3533 126 73 67
-0.5210 -0.8742 0.4951 142 147 139
-0.6012 -0.8910 0.5098 130 100 90
-0.5925 -0.9355 0.5005 149 135 128
-0.4685 -0.4268 0.3063 134 79 71
-0.6805 0.1186 0.6103 153 101 96
-0.5637 -0.7393 0.3788 113 82 73
-0.6580 -0.1194 2.0069 183 114 117
-0.6965 0.0448 0.6033 156 117 107
-0.6544 -0.0025 0.5853 149 128 120
-0.7913 -0.0035 0.6186 158 92 87
-0.3778 -0.0508 0.5030 158 118 111
-0.9225 -0.5529 1.1362 147 102 117
-0.6676 -0.8625 0.6795 132 92 85
-0.8045 -0.5509 1.7319 182 109 111
-0.3961 -0.0615 0.5146 163 114 108
-0.4556 -0.0451 0.5523 181 116 111
-0.5569 -0.5587 1.5670 117 75 73
-0.5486 -0.0544 0.5585 178 104 98
-0.6010 -0.0480 0.5750 172 99 92
-0.6918 -0.0519 0.5869 162 89 84
-0.3341 -0.1504 0.1870 135 106 102
-0.7438 -0.7788 0.4733 96 74 64
-0.6699 -0.0867 0.4725 116 82 75
-0.4945 -0.7667 0.5958 151 92 83
-0.3504 -0.0937 0.5225 152 103 98
-0.4509 -0.1175 0.7881 146 79 75
-0.4457 -0.0939 0.5289 179 99 93
-0.7404 -0.1509 0.2725 115 73 67
-0.7887 -0.1281 0.8534 149 85 80
-0.3824 -0.1997 0.5623 143 82 72
-0.5453 -0.0926 0.5457 175 95 88
-0.6895 0.1058 0.5555 147 99 93
-0.5739 -0.5621 0.8199 142 81 72
-0.7712 -0.3235 0.8110 127 66 64
-0.7021 -0.0846 0.5826 146 79 74
-0.5350 -0.5299 0.8089 148 84 77
-0.5365 -0.4607 1.4693 150 89 85
-0.3536 -0.1488 0.5053 151 109 103
-0.5432 -0.8995 0.6011 151 124 118
-0.5317 -0.7574 0.5745 134 81 70
-0.4472 -0.4935 0.5310 157 87 80
-0.7070 -0.3392 1.3077 44 37 37
-0.9077 -0.4344 1.5114 128 85 84
-0.7596 -0.1366 0.5785 132 80 71
-0.6120 -0.6990 0.9490 235 141 143
-0.7850 -0.1571 0.5970 132 79 69
-0.7390 -0.5371 0.1247 120 71 63
-0.3160 -0.1876 0.4997 162 134 130
-0.5934 -0.2520 1.8253 179 108 106
-0.2848 -0.1245 0.6192 183 108 105
-0.3957 -0.2224 0.2954 132 80 72
-0.6257 -0.8372 0.9345 138 84 79
-0.6499 -0.0852 1.9418 189 122 125
-0.7569 -0.1981 0.5780 137 77 70
-0.7406 -0.1882 1.6034 162 97 94
-0.2495 -0.1991 0.6441 169 129 127
-0.4742 -0.5334 0.3306 113 68 63
-0.7531 -0.0975 0.6064 135 79 70
-0.2936 -0.2803 0.4938 179 95 96
-0.4081 -0.0728 0.7762 156 92 87
-0.8144 -0.5868 0.1318 123 76 67
-0.6114 -0.0649 0.7202 155 86 81
-0.4851 -0.7063 0.5655 145 91 81
-0.7115 -0.3858 1.7288 183 111 115
-0.8152 -0.7364 0.4638 104 73 64
-0.7692 -0.3539 0.5435 130 76 70
-0.7889 -0.6667 0.3112 103 65 58
-0.6064 -0.5635 1.5286 116 74 67
-0.5662 -0.4167 1.4484 144 81 72
-0.9004 -0.5606 0.2628 87 64 56
-0.4169 -0.3364 0.4394 139 84 75
-0.7097 -0.5140 0.2060 142 82 75
-0.4132 -0.1993 0.9555 194 104 99
-0.6604 -0.0530 1.7052 195 128 126
-0.5632 -0.9740 0.5978 176 171 161
-0.6999 0.0933 0.6625 158 99 96
-0.6885 -0.1233 0.3206 127 91 84
-0.8374 -0.6300 0.3419 121 81 75
-0.7080 -0.7019 0.3094 128 81 76
-0.7321 -0.0028 0.9516 238 164 167
-0.7599 -0.2339 1.2450 79 54 60
-0.7593 -0.0538 0.7106 142 83 77
-0.7552 0.0044 0.4999 140 117 111
-0.6451 -0.1696 0.3093 134 81 75
-0.3145 -0.2063 0.4624 186 169 165
-0.4869 -0.6391 0.8815 120 79 76
-0.7819 -0.0842 0.8624 150 84 80
-0.4708 -0.7042 0.1862 113 80 70
-0.8536 -0.6402 0.5357 137 77 72
-0.6992 -0.2061 0.3050 137 80 74
-0.8956 -0.5889 0.1001 114 78 71
-0.4352 -0.4183 0.3343 133 80 72
-0.4632 -0.5490 0.1230 129 80 70
-0.7468 -0.2152 0.3285 96 60 55
-0.5321 -0.3100 1.0844 80 67 73
-0.7333 -0.1973 0.1697 129 79 70
-0.3371 -0.2776 0.3317 149 86 81
-0.5879 -0.5863 0.4648 156 88 78
-0.5935 -0.0899 0.5599 165 88 83
-0.7416 -0.4918 0.4481 126 77 67
-0.7474 -0.4551 1.7813 182 111 113
-0.7852 -0.2638 0.3197 123 74 69
-0.7452 -0.0728 0.8509 151 82 77
-0.4425 -0.4025 0.5890 136 79 70
-0.7316 -0.3927 0.4337 123 74 65
-0.7705 -0.6661 0.3701 92 65 55
-0.7249 -0.1234 0.3694 125 94 86
-0.4382 -0.4162 0.2830 135 83 73
-0.8270 -0.7125 0.6897 145 81 76
-0.8557 -0.5072 1.0209 79 68 71
-0.4125 -0.4981 0.5206 157 83 77
-0.8055 -0.2499 0.2219 140 86 81
-0.2148 -0.3193 0.1425 157 122 117
-0.7476 -0.4630 1.1507 71 49 62
-0.6229 -0.6907 1.7185 145 90 87
-0.6898 -0.3601 0.2923 138 81 74
-0.8134 -0.5446 0.4487 122 75 66
-0.8409 -0.6274 0.8524 136 80 73
-0.6462 -0.2049 0.2954 141 81 75
-0.7534 -0.3653 0.2952 117 69 63
-0.8244 -0.3836 0.3257 147 88 82
-0.9160 -0.7483 0.9159 179 119 117
-0.2911 -0.4006 0.2221 156 116 111
-0.6155 -0.1273 2.0444 182 116 119
-0.5674 -0.0217 0.7269 186 108 101
-0.5900 -0.0107 0.5742 183 111 105
-0.5292 -0.5383 0.8512 144 84 75
-0.6818 -0.8273 0.8453 122 78 71
-0.9401 -0.8133 0.8017 149 117 112
-0.6704 -0.0866 1.6281 127 67 71
-0.8052 -0.2801 0.4763 114 67 62
-0.8300 -0.4127 0.6682 134 80 73
-0.4988 -0.1659 1.0521 80 68 81
-0.7418 0.0816 0.8253 184 176 169
-0.5614 -0.8205 0.7197 112 70 62
-0.6129 -0.1253 1.0711 85 73 84
-0.6999 -0.4023 0.3010 137 82 74
-0.5894 -0.8332 0.7787 117 75 66
-0.8556 -0.5372 0.4604 132 78 71
-0.5112 -0.3008 1.7986 181 112 112
-0.8230 -0.5967 0.9505 174 101 108
-0.7144 -0.0956 0.9509 210 114 127
-0.4237 -0.4994 0.1705 143 88 80
-0.5751 -0.5022 1.3342 76 67 77
-0.5045 -0.6697 0.7270 138 82 74
-0.5215 -0.6057 0.1205 109 68 59
-0.7951 -0.4100 0.3026 132 80 74
-0.6100 -0.8395 0.4796 121 98 88
-0.7140 -0.1282 2.0170 194 117 121
-0.8705 -0.5888 0.9179 182 98 98
-0.4987 -0.8032 0.5867 144 88 78
-0.8740 -0.4681 0.5871 158 101 98
-0.3936 -0.1420 0.5081 152 89 81
-0.5044 -0.3220 1.5950 164 95 92
-0.4066 -0.3624 0.2311 142 86 77
-0.6961 -0.4590 0.1468 144 84 77
-0.6574 -0.1021 1.0383 115 87 102
-0.8370 -0.4657 0.3041 147 86 79
-0.8400 -0.4757 1.5968 149 114 115
-0.5227 -0.7719 0.3728 94 75 65
-0.8948 -0.8653 0.7859 114 77 70
-0.6077 -0.6289 1.2176 75 61 65
-0.7594 -0.1879 0.8321 132 78 71
-0.2409 -0.1351 0.6562 177 172 167
-0.7963 -0.5203 0.2962 136 78 70
-0.5273 -0.1298 0.8642 180 93 89
-0.5373 -0.2589 1.8649 172 105 103
-0.5364 -0.6813 0.7905 120 74 66
-0.5807 -0.1951 0.1315 152 87 80
-0.4779 -0.5705 0.3308 109 69 61
-0.5304 -0.6156 1.0943 93 67 77
-0.8434 -0.5100 0.3028 145 89 83
-0.7610 -0.2464 0.2250 129 81 73
-0.8063 -0.6170 0.7852 140 79 74
-0.8778 -0.5098 0.6036 141 84 76
-0.7609 -0.0696 0.7605 142 83 75
-0.6334 0.0003 1.1450 52 39 41
-0.7139 -0.1442 1.7587 182 113 115
-0.6934 -0.5735 0.2787 109 77 72
-0.7561 -0.6974 0.2596 118 89 83
-0.5914 -0.1715 0.3428 130 80 73
-0.7679 -0.5290 1.8859 181 111 112
-0.3610 -0.3027 0.5801 164 106 97
-0.6059 -0.9684 0.6130 138 136 127
-0.5908 -0.2079 0.3333 138 81 75
-0.8047 -0.5492 1.0050 79 61 64
-0.7720 -0.6092 1.8485 152 97 95
-0.8234 -0.2948 0.1058 133 74 69
-0.6196 -0.9375 0.4429 164 165 154
-0.3204 -0.2616 0.4675 164 98 95
-0.5863 -0.5522 1.3734 59 51 58
-0.7668 -0.5962 1.7118 170 102 102
-0.5605 -0.7383 0.3382 107 78 69
-0.6447 -0.0285 0.2068 106 82 74
-0.6949 -0.5469 1.2836 50 39 43
-0.4278 -0.6407 0.1831 108 68 59
-0.8523 -0.7740 0.7880 131 78 71
-0.8085 -0.4459 0.5103 123 75 67
-0.6568 -0.6559 0.2490 90 65 54
-0.7145 -0.1029 0.1755 114 99 93
-0.5038 -0.4669 0.7061 140 81 71
-0.8617 -0.5080 1.8865 154 97 98
-0.5152 -0.6640 0.6766 141 83 73
-0.7511 -0.6587 0.2650 105 72 63
-0.8924 -0.6914 0.5063 133 83 78
-0.5613 -0.1090 0.9955 159 95 97
-0.8384 -0.3196 0.8010 136 88 85
-0.5768 -0.1752 0.3913 124 76 67
-0.5415 -0.4091 1.0796 82 70 76
-0.8429 -0.6620 0.2922 125 77 72
-0.7765 -0.3857 1.6305 185 108 111
-0.5536 -0.1669 0.2814 143 90 83
-0.8310 -0.2680 0.6422 150 86 81
-0.5043 -0.5881 0.4380 119 76 67
-0.8588 -0.6053 0.5452 128 76 68
-0.7934 -0.1784 0.9964 75 39 58
-0.8097 -0.8281 0.5094 115 72 63
-0.4727 -0.0552 0.1231 126 130 124
-0.8002 -0.7016 0.2581 140 79 75
-0.5409 -0.2747 1.6098 162 92 86
-0.8135 -0.2411 0.9385 198 108 111
-0.6341 -0.6614 1.0674 115 133 125
-0.8861 -0.6409 0.5101 141 98 91
-0.5053 -0.2018 1.8134 186 113 110
-0.9411 -0.7716 0.8062 142 105 100
-0.7652 -0.2414 0.5273 129 74 67
-0.5380 -0.0836 0.8578 176 93 89
-0.6847 -0.7362 0.2355 131 84 82
-0.3705 -0.1605 0.6612 155 88 81
-0.7115 -0.1415 0.5556 136 81 73
-0.4511 -0.1784 0.2644 147 90 80
-0.3808 -0.1583 0.2024 140 85 80
-0.4562 -0.1685 0.2105 142 86 77
-0.8378 -0.7524 0.6283 133 78 70
-0.6093 -0.1556 0.2496 140 88 79
-0.8739 -0.5841 1.6945 255 255 255
-0.6495 -0.4788 1.4157 79 50 50
-0.4446 -0.4326 0.4837 143 84 75
-0.4422 -0.1786 0.3185 132 82 73
-0.8953 -0.5866 0.5076 131 78 71
-0.7356 -0.2402 0.1596 139 80 73
-0.8555 -0.5138 0.1317 100 70 63
-0.5586 -0.7535 0.3288 145 156 143
-0.7521 -0.1815 0.8856 137 83 76
-0.5611 -0.6824 0.4349 109 81 72
-0.2918 -0.2716 0.1519 173 98 94
-0.4607 -0.2032 0.2111 152 90 83
-0.6107 -0.1824 1.2659 127 83 115
-0.5603 -0.2002 0.2349 147 85 78
-0.6026 -0.2005 0.2421 152 87 81
-0.2508 -0.2794 0.1961 153 108 105
-0.6546 -0.1341 0.3221 139 87 77
-0.4735 -0.6260 0.4223 107 68 62
-0.6549 -0.2026 0.2424 150 86 80
-0.5375 -0.8780 0.8591 117 73 68
-0.8724 -0.4613 1.3962 127 69 75
-0.6868 -0.5771 1.6020 88 54 49
-0.6850 -0.3629 1.4771 149 82 78
-0.8920 -0.6959 0.6023 139 83 75
-0.5310 -0.2159 0.3752 122 73 65
-0.7214 -0.2853 1.8779 183 121 129
-0.7180 -0.2530 0.3032 108 64 59
-0.5777 -0.6237 1.7537 161 103 94
-0.7135 0.0473 0.5091 137 149 143
-0.3318 -0.1679 0.1515 137 113 105
-0.6311 -0.3793 1.6665 179 107 103
-0.7141 -0.6472 1.7420 153 94 93
-0.5091 -0.2411 0.2289 147 83 76
-0.3675 -0.2074 0.2347 150 93 86
-0.6217 -0.6446 1.0950 66 51 51
-0.5613 -0.0529 0.5065 175 109 103
-0.7907 -0.5388 0.1306 124 75 66
-0.5245 -0.4906 0.8667 147 85 76
-0.9339 -0.4223 0.4434 132 77 68
-0.7072 -0.7001 0.9528 215 126 132
-0.6802 -0.0084 0.4766 122 80 72
-0.2500 -0.3011 0.1589 172 100 97
-0.8830 -0.4861 0.7931 150 92 88
-0.4141 -0.3537 0.1812 140 84 74
-0.5521 -0.7696 0.7220 97 62 55
-0.7400 -0.4627 0.3315 136 80 71
-0.9140 -0.5709 0.1019 150 123 121
-0.8484 -0.3448 0.2686 145 80 77
-0.4477 -0.4562 0.5880 145 84 75
-0.8486 -0.6775 0.8476 135 80 72
-0.7654 -0.1160 0.6392 142 83 75
-0.4763 -0.5979 1.0028 38 31 34
-0.9218 -0.6920 0.9055 165 93 91
-0.7242 -0.3613 0.2398 137 79 71
-0.5108 -0.6035 0.9936 77 47 53
-0.5278 -0.5900 0.8467 139 82 72
-0.9385 -0.7789 0.8535 117 75 72
-0.4229 -0.2815 1.4056 98 75 94
-0.4571 -0.2513 0.2068 151 85 77
-0.5914 -0.4928 1.2370 71 63 73
-0.6187 -0.1423 0.9315 236 126 129
-0.3184 -0.4364 0.1352 155 92 88
-0.5895 -0.5789 1.6311 95 61 56
-0.7102 -0.4264 1.2968 33 31 28
-0.3200 -0.1649 0.7113 160 95 90
-0.8337 0.0300 0.7363 162 120 115
-0.6771 -0.6781 0.3878 79 62 52
-0.6885 -0.6302 1.6420 96 72 64
-0.4760 -0.5099 0.6395 142 84 73
-0.7581 -0.4650 0.2405 130 79 70
-0.5771 -0.6679 1.1565 87 69 68
-0.6155 -0.2924 1.6587 166 92 87
-0.2546 -0.1596 0.5136 174 138 133
-0.2993 -0.1455 0.5485 178 136 131
-0.6626 -0.6461 1.7379 152 94 91
-0.7678 -0.5249 1.9759 171 106 106
-0.3078 -0.2452 0.6296 153 113 104
-0.8430 -0.4656 0.2644 144 82 76
-0.8042 -0.5759 0.7916 142 80 74
-0.8071 -0.3379 0.2068 128 79 70
-0.5205 -0.7621 0.4144 117 82 76
-0.5227 -0.2189 1.5058 166 98 94
-0.7696 -0.1857 0.4340 105 62 59
-0.7539 -0.1768 1.5464 176 110 108
-0.4172 -0.4645 0.2133 141 86 77
-0.8955 -0.1351 0.2399 173 153 146
-0.7808 -0.3191 0.3151 107 68 63
-0.8064 -0.5064 0.2466 130 79 70
-0.8281 -0.4738 0.8741 110 66 63
-0.6984 -0.1677 0.3155 128 75 68
-0.6905 -0.0952 0.1155 148 95 90
-0.6973 -0.6136 1.2079 80 60 69
-0.4578 -0.5583 0.1665 133 81 71
-0.4550 -0.6514 0.2615 101 66 55
-0.8166 -0.6159 0.7382 141 80 75
-0.5354 -0.6525 0.5792 141 84 73
-0.7249 -0.1369 0.5146 137 78 70
-0.8628 -0.3834 0.4800 125 75 66
-0.8660 -0.4794 0.4183 142 84 77
-0.5111 -0.7891 0.8080 121 76 72
-0.4071 -0.3226 0.8060 143 83 74
-0.6345 -0.1727 1.9462 176 107 107
-0.7473 -0.6254 0.3157 92 63 54
-0.7531 -0.1141 0.7831 139 80 73
-0.6169 -0.5734 0.1868 97 64 54
-0.7985 -0.1439 0.9983 130 89 110
-0.6037 -0.1702 0.2915 114 69 64
-0.5305 -0.8085 0.6104 139 83 74
-0.7283 -0.1718 1.1445 112 80 101
-0.7174 -0.4589 1.5176 135 77 73
-0.8651 -0.4401 1.4362 108 66 60
-0.5788 -0.1244 0.4109 133 85 78
-0.7870 -0.4817 1.6160 140 84 83
-0.6001 -0.0940 1.9861 162 99 100
-0.9520 -0.7921 0.9392 177 106 107
-0.5752 -0.6234 1.1618 73 59 63
-0.3891 -0.2541 0.6501 142 82 74
-0.7876 -0.1964 0.5468 132 80 71
-0.3275 -0.5889 0.1579 106 71 60
-0.3649 -0.6090 0.1381 111 70 60
-0.5540 -0.8443 0.5100 127 93 84
-0.2922 -0.4669 0.1917 152 112 109
-0.7890 -0.6977 0.1072 109 103 95
-0.5794 -0.0838 0.4107 139 94 82
-0.4338 -0.4593 0.9235 180 102 98
-0.7060 -0.8210 0.7489 89 57 52
-0.5369 -0.0512 0.6103 175 103 97
-0.3971 -0.2777 0.8035 129 72 65
-0.6694 -0.6520 0.1442 95 63 53
-0.7343 -0.4070 1.2361 181 152 171
-0.7121 -0.6094 0.2101 99 68 58
-0.6585 -0.6125 0.2006 93 64 54
-0.7281 -0.6412 0.1599 102 70 60
-0.5858 -0.5516 1.3233 69 59 69
-0.5776 -0.8124 0.5760 125 75 66
-0.8116 -0.6095 0.2321 119 72 65
-0.4810 -0.5025 0.5863 148 86 76
-0.3782 -0.2561 0.6984 155 95 87
-0.4452 -0.3394 0.4505 128 77 66
-0.8141 -0.1141 0.2379 150 96 89
-0.5762 -0.6612 0.1735 105 74 65
-0.2821 -0.1980 0.7270 166 150 147
-0.6482 -0.5715 1.5959 79 54 47
-0.5289 -0.8986 0.6421 138 112 104
-0.7651 -0.7451 0.4686 96 66 57
-0.9666 -0.7287 0.9332 248 168 172
-0.4863 -0.6837 0.1039 106 68 59
-0.6089 -0.6518 0.1938 99 70 60
-0.6925 -0.5516 1.3465 54 42 44
-0.8609 -0.6095 0.9593 208 117 124
-0.5176 -0.8776 0.7589 119 75 69
-0.8431 -0.6576 0.2482 134 81 75
-0.7591 0.1011 0.8784 159 159 154
-0.3439 -0.6769 0.1347 117 77 70
-0.2165 -0.4098 0.1239 158 120 114
-0.5980 -0.7662 0.1964 112 94 82
-0.5331 -0.6904 0.8350 114 69 62
-0.8150 -0.4661 0.7729 128 74 68
-0.5764 -0.3740 1.6036 164 92 85
-0.7889 -0.2501 0.5892 122 72 64
-0.5917 -0.0007 0.8691 161 122 116
-0.5543 -0.6178 0.6366 145 86 75
-0.6036 -0.8293 0.7270 116 71 63
-0.6287 -0.5963 1.3735 64 53 57
-0.7742 -0.3584 0.2497 129 80 71
-0.4865 -0.0802 0.1878 138 92 85
-0.8132 -0.0484 0.7645 166 92 89
-0.7512 -0.5320 0.8115 140 82 74
-0.8561 -0.7868 0.4909 122 79 71
-0.4415 -0.5247 0.3179 113 71 65
-0.8086 -0.6586 0.2771 112 75 67
-0.4494 -0.3050 0.9560 178 103 103
-0.5943 -0.6383 0.4565 139 77 66
-0.5912 -0.6155 1.8689 156 98 93
-0.6937 -0.1252 0.3783 129 104 96
-0.4377 -0.4745 0.3272 121 78 71
-0.9051 -0.4081 0.5272 131 74 67
-0.5199 -0.1781 0.4322 112 69 62
-0.5472 -0.2465 1.8216 176 106 103
-0.7069 -0.1243 0.7726 148 81 74
-0.4501 -0.4525 0.1891 136 83 72
-0.7959 -0.0032 0.5608 167 97 91
-0.8225 -0.7696 0.6733 130 77 69
-0.4163 -0.0367 0.1087 133 141 135
-0.4501 -0.4711 0.7433 152 90 82
-0.7661 -0.2924 0.2057 129 79 71
-0.4750 -0.2399 0.1614 150 83 75
-0.6725 -0.5137 1.3613 41 31 33
-0.7081 -0.2733 1.5396 159 91 89
-0.3995 -0.2914 0.4956 128 78 69
-0.4826 -0.5784 0.2821 104 68 62
-0.5196 -0.0200 0.1218 138 130 123
-0.7855 -0.4624 1.0725 111 91 105
-0.4718 -0.6577 0.1011 105 69 60
-0.8932 -0.5242 0.7803 137 81 77
-0.5728 -0.2076 0.1756 149 85 78
-0.5593 -0.2123 1.5138 164 96 91
-0.3677 -0.3044 0.1725 153 92 85
-0.8216 -0.6974 0.9396 218 120 125
-0.4424 -0.4010 0.5436 132 73 66
-0.4642 -0.2682 1.2335 91 74 86
-0.6711 -0.6425 1.9374 160 99 96
-0.4297 -0.3715 0.3343 139 84 76
-0.6772 -0.0003 0.9356 207 130 134
-0.5512 -0.6955 0.1730 107 75 66
-0.8138 -0.5596 0.2850 128 78 69
-0.5093 -0.5613 0.1739 115 74 63
-0.7493 -0.3579 1.1190 61 50 58
-0.6463 -0.6387 2.0084 151 95 95
-0.4468 -0.4599 0.2301 136 82 73
-0.8115 -0.8128 0.7186 129 80 72
-0.5850 -0.4478 0.5697 114 57 48
-0.6220 -0.1121 1.3214 175 134 157
-0.8489 -0.7151 0.1943 158 92 90
-0.7945 -0.5690 0.3874 130 76 69
-0.8152 -0.5500 0.9568 90 59 60
-0.6023 -0.6457 0.4739 137 85 71
-0.6901 -0.5598 1.9107 165 100 98
-0.7880 -0.6737 1.7746 161 99 96
-0.7950 -0.7504 0.6232 139 83 77
-0.4975 -0.7124 0.3170 107 74 64
-0.8097 -0.3091 0.7434 116 67 61
-0.4937 -0.1363 0.5368 174 94 87
-0.8851 -0.5175 0.5579 129 71 64
-0.6808 -0.1334 0.1140 121 100 92
-0.6942 -0.1531 1.3824 97 69 83
-0.8118 -0.5951 0.5780 139 77 70
-0.7721 -0.1460 0.1816 154 91 84
-0.8239 -0.0879 0.9177 202 113 111
-0.8874 -0.7505 0.5906 137 80 72
-0.3339 -0.0948 0.1873 135 106 100
-0.8417 -0.3614 1.3793 108 87 90
-0.7132 -0.7566 0.9922 192 104 113
-0.6871 -0.1111 1.8540 171 108 110
-0.7140 -0.7003 0.2606 117 80 75
-0.5674 -0.7113 0.8622 101 62 53
-0.5665 -0.1839 1.2130 114 87 117
-0.4688 -0.6074 0.1694 129 79 69
-0.6697 -0.7291 0.1633 115 89 79
-0.7596 -0.3016 1.0269 69 59 64
-0.8913 -0.8319 0.7830 138 93 91
-0.8805 -0.7004 0.6500 137 82 74
-0.4238 -0.2737 0.3497 130 77 69
-0.8127 -0.5254 2.0256 168 103 103
-0.8039 -0.2670 0.7383 136 77 70
-0.4753 -0.5574 0.5885 143 84 74
-0.5681 -0.6036 0.9494 133 78 76
-0.8702 -0.4317 0.4215 138 78 72
-0.5983 -0.7027 0.2372 104 76 65
-0.8170 -0.7939 0.2175 133 81 80
-0.4216 -0.6089 0.1997 124 77 68
-0.8330 -0.5597 0.6523 140 79 73
-0.6087 -0.1015 1.6044 174 124 139
-0.5419 -0.5580 0.4964 141 78 69
-0.7613 -0.3078 0.5727 134 77 71
-0.8277 -0.2431 0.1246 142 77 71
-0.6025 -0.5714 1.5771 126 79 73
-0.3727 -0.2539 0.1838 158 91 84
-0.8334 -0.2741 0.8379 139 82 77
-0.8409 -0.6114 0.2875 112 73 66
-0.7584 -0.1183 0.2222 139 100 93
-0.8317 -0.1915 0.2067 147 88 80
-0.7655 -0.3294 0.4536 97 60 52
-0.4883 -0.4272 0.8051 138 80 71
-0.8160 -0.1466 0.1980 154 95 90
-0.5765 -0.5548 1.4248 109 67 66
-0.7483 -0.1268 0.8505 139 80 75
-0.6677 -0.5332 1.0760 53 38 41
-0.5075 -0.4585 0.4573 151 86 78
-0.7576 -0.1422 0.5386 134 76 69
-0.8930 -0.7501 0.5360 127 74 68
-0.4765 -0.2432 0.1111 153 87 80
-0.6486 -0.1035 1.8043 181 113 114
-0.9139 -0.5086 0.1134 100 69 66
-0.5801 -0.2425 0.1260 146 83 76
-0.6717 -0.9436 0.7626 154 170 163
-0.6890 -0.8092 0.5934 120 75 66
-0.5514 -0.7806 0.8185 112 71 64
-0.6814 -0.2356 0.1548 156 85 80
-0.4405 -0.2238 0.3102 142 85 78
-0.7004 -0.1156 1.0939 112 88 103
-0.4632 -0.5210 0.7656 147 87 79
-0.3145 -0.2304 0.4219 142 122 118
-0.2878 -0.2189 0.1158 137 134 129
-0.8774 -0.8464 0.6206 136 83 77
-0.4604 -0.4391 0.4390 129 77 68
-0.4476 -0.0462 0.7607 151 80 75
-0.7619 -0.2490 0.1770 132 82 73
-0.8031 -0.6621 0.2347 110 76 68
-0.7942 -0.2297 1.3154 53 37 41
-0.8778 -0.6490 0.5987 138 83 74
-0.6825 -0.0435 0.1240 134 112 107
-0.7046 -0.0422 0.4497 153 165 159
-0.7441 -0.5056 1.8289 174 104 106
-0.4257 -0.4756 0.4864 137 72 67
-0.4214 -0.6287 0.4776 162 114 112
-0.8326 -0.4436 0.1000 129 78 72
-0.4824 -0.8594 0.8951 112 77 72
-0.3345 -0.2667 0.2604 163 94 88
-0.4770 -0.5553 0.9352 171 96 92
-0.5527 -0.1654 0.4757 149 87 80
-0.5543 -0.1447 1.7774 178 111 109
-0.4940 -0.5229 0.7455 143 83 73
-0.5169 -0.5557 0.1312 105 66 57
-0.6755 -0.7830 0.6954 116 69 62
-0.6358 -0.0611 0.6299 157 87 82
-0.5689 -0.7509 0.1106 112 102 93
-0.5065 -0.4894 0.4514 129 75 65
-0.3750 -0.2755 0.3854 132 83 77
-0.8236 -0.4598 1.4884 113 77 75
-0.2596 -0.0973 0.9128 166 132 148
-0.5024 -0.2412 0.2945 97 58 58
-0.7376 -0.0072 0.6099 138 94 86
-0.7813 -0.2603 0.6887 136 78 72
-0.6455 -0.0246 0.6380 156 93 89
-0.6873 -0.5941 1.3817 80 59 62
-0.6050 -0.8851 0.4698 123 95 86
-0.3792 -0.2435 0.1395 144 86 78
-0.6012 -0.6124 0.2431 92 63 54
-0.7887 -0.6416 0.4080 82 59 50
-0.8426 -0.7004 0.5790 136 81 72
-0.7706 -0.3606 1.1364 63 51 60
-0.4087 -0.4233 0.7478 154 95 87
-0.4246 -0.6822 0.1377 110 71 62
-0.6080 -0.3844 1.5192 145 79 72
-0.3460 -0.2001 0.5522 157 96 90
-0.5711 -0.2476 1.4219 139 80 78
-0.4169 -0.3068 0.6543 133 74 66
-0.5477 -0.4080 1.8936 197 128 128
-0.7557 -0.4632 0.2771 132 80 70
-0.8333 -0.2401 0.5378 150 89 85
-0.4056 -0.2069 0.2010 141 85 76
-0.6488 -0.6637 0.2948 81 68 61
-0.3978 -0.1431 0.3385 124 73 69
-0.4515 -0.5361 0.5302 154 86 78
-0.7791 -0.3393 0.1451 132 80 71
-0.6934 -0.1451 2.0489 174 111 118
-0.4728 -0.6526 0.6616 152 91 83
-0.7795 -0.1205 1.1526 116 78 101
-0.6978 -0.3540 0.1207 136 80 71
-0.8246 -0.5233 0.7501 122 74 68
-0.8012 -0.2787 0.4260 126 82 72
-0.8179 -0.1024 0.6632 164 95 94
-0.4639 -0.3698 0.6505 143 80 72
-0.5976 -0.4628 1.8534 174 107 106
-0.7843 -0.5987 0.8293 135 81 74
-0.7288 -0.3796 0.1380 143 84 76
-0.7688 -0.8272 0.9223 196 116 116
-0.6304 -0.8740 0.8247 125 80 73
-0.6880 -0.1827 0.1030 150 84 78
-0.5709 -0.6486 0.1335 102 67 57
-0.6169 -0.1196 2.0074 172 112 112
-0.7116 -0.2097 2.0482 163 100 101
-0.5786 -0.5704 1.1584 67 55 60
-0.9114 -0.8359 0.6060 152 89 85
-0.4866 -0.2642 1.1291 84 72 83
-0.7282 -0.2969 0.1871 140 82 76
-0.7358 0.0295 0.6529 157 109 103
-0.7614 -0.1956 0.2193 127 80 71
-0.7135 -0.1569 1.8127 183 114 115
-0.4540 -0.2505 0.2513 149 82 75
-0.8061 -0.3958 0.5581 126 76 68
-0.5297 -0.7409 0.1064 124 98 88
-0.7193 -0.8661 0.4823 96 64 56
-0.7329 -0.3959 0.2419 125 78 69
-0.8294 -0.6582 0.3353 109 69 61
-0.5733 -0.4614 1.4466 144 83 76
-0.7487 -0.1656 0.3317 100 64 58
-0.7768 -0.5528 0.1718 133 74 68
-0.6823 -0.2862 1.6359 160 94 92
-0.7006 -0.5798 1.2901 80 61 66
-0.9707 -0.4884 0.9597 235 178 204
-0.2484 -0.1804 0.7797 168 134 133
-0.6738 -0.0081 0.6936 141 122 115
-0.7415 -0.0843 0.3925 122 101 94
-0.5289 -0.1380 1.6711 163 98 93
-0.6220 -0.4226 2.0107 163 99 99
-0.7672 -0.3921 0.2032 136 78 70
-0.5633 -0.0765 0.4588 139 88 84
-0.7324 -0.6025 0.1185 106 67 57
-0.8245 -0.6387 0.1263 118 77 69
-0.3699 -0.3976 0.1738 153 91 83
-0.5482 -0.5916 1.7870 163 100 91
-0.7341 -0.8813 0.5225 147 141 134
-0.8139 -0.6959 0.1139 143 83 78
-0.3961 -0.2786 0.8561 136 74 67
-0.4639 -0.6438 0.5128 162 92 86
-0.3136 -0.2670 0.1850 167 98 93
-0.4172 -0.4199 0.2279 141 85 76
-0.6337 -0.1748 0.9324 253 133 136
-0.6423 -0.5284 1.5946 92 59 53
-0.7161 -0.3082 0.4599 110 69 61
-0.8640 -0.5902 0.4996 129 76 69
-0.6332 -0.6388 0.9243 225 120 123
-0.7022 -0.7297 0.4510 86 61 51
-0.6080 -0.7749 0.4393 104 91 82
-0.4937 -0.1441 0.3818 113 71 65
-0.6858 -0.2653 1.5935 153 89 85
-0.5336 -0.6751 0.3223 98 67 58
-0.7760 -0.3133 0.7882 132 75 75
-0.6498 -0.1112 0.1509 122 103 95
-0.4435 -0.5894 0.3493 108 67 62
-0.8933 -0.5062 1.0940 111 96 102
-0.7153 -0.5454 1.2532 65 46 51
-0.8892 -0.7877 0.7988 119 71 66
-0.6293 -0.6429 0.3434 80 61 51
-0.9213 -0.7073 0.6589 141 87 81
-0.2780 -0.3058 0.2702 151 104 101
-0.3751 -0.2362 0.4497 128 82 75
-0.7911 -0.3756 0.3025 129 79 72
-0.6919 -0.3002 1.7955 219 149 158
-0.5375 -0.0427 0.1849 134 97 89
-0.7764 -0.3491 0.2046 140 81 76
-0.5626 -0.7073 0.6815 145 86 77
-0.5382 -0.7928 0.8617 114 70 65
-0.7321 -0.8100 0.6497 118 73 63
-0.8690 -0.6485 0.9489 242 140 147
-0.4472 -0.4929 0.4774 136 79 71
-0.7842 -0.4804 0.7140 141 83 75
-0.4994 -0.6172 0.2212 112 71 63
-0.4750 -0.1179 0.1414 146 118 110
-0.5672 -0.8006 0.9212 139 84 79
-0.4607 -0.4576 0.6951 144 84 73
-0.7976 -0.7393 0.2036 130 74 69
-0.4805 -0.1977 0.1173 146 85 77
-0.5238 -0.0654 0.7026 176 99 92
-0.4799 -0.0968 0.9554 235 134 140
-0.6765 -0.1468 0.1548 143 92 86
-0.8945 -0.5373 0.5237 138 81 74
-0.6373 -0.0603 0.5815 158 86 81
-0.6896 -0.0897 0.6231 148 78 73
-0.4340 -0.4127 0.2424 135 81 71
-0.9000 -0.6751 0.7541 148 87 80
-0.5200 -0.9448 0.4628 146 165 158
-0.5930 -0.6869 0.4818 133 77 65
-0.7485 -0.7861 0.1884 105 62 58
-0.5539 -0.0568 1.8088 202 121 121
-0.6155 -0.1232 0.2936 98 63 56
-0.8416 -0.2014 0.7465 159 106 101
-0.9084 -0.7217 0.7410 140 80 75
-0.4765 -0.6271 0.3681 108 70 64
-0.8158 -0.6695 0.5741 138 78 71
-0.4252 -0.4528 0.1663 139 84 74
-0.3466 -0.0643 0.5656 167 98 92
-0.7481 -0.3875 1.3280 40 34 35
-0.7168 -0.1362 1.2499 70 48 56
-0.3639 -0.1168 0.7164 163 93 87
-0.5608 -0.1474 1.3191 131 108 138
-0.8752 -0.4200 1.4938 91 67 63
-0.8634 -0.1629 0.2932 150 91 86
-0.9038 -0.3940 0.4769 120 71 62
-0.6884 -0.1282 0.4211 111 91 83
-0.6152 -0.2253 2.0445 144 94 91
-0.7669 -0.7244 0.4265 81 59 50
-0.4933 -0.7368 0.8694 110 65 63
-0.7334 -0.1477 0.1214 125 80 71
-0.4580 -0.2130 0.2582 148 89 81
-0.8006 -0.0803 0.5677 166 92 90
-0.8957 -0.4971 0.9996 69 58 66
-0.8676 -0.0817 0.1592 161 107 100
-0.4351 -0.5136 0.4157 133 86 81
-0.5602 -0.5101 1.0184 67 54 59
-0.7930 -0.2924 0.5714 138 76 71
-0.7672 -0.8062 0.9608 179 105 105
-0.8136 -0.1644 0.2837 147 87 80
-0.3163 -0.6225 0.1022 111 76 65
-0.4201 -0.2320 0.4067 120 73 64
-0.5439 -0.0432 0.8171 143 78 73
-0.8334 -0.4845 0.9140 154 84 85
-0.3430 -0.1016 0.5563 158 92 85
-0.7333 -0.2582 1.0917 116 97 110
-0.4204 -0.3253 0.3919 141 86 77
-0.6279 -0.2028 0.1457 153 87 80
-0.4264 -0.3803 0.3869 141 86 77
-0.4370 -0.6357 0.1054 118 74 66
-0.7607 -0.2031 0.1749 140 82 75
-0.3835 -0.3927 0.1274 140 85 76
-0.7910 -0.6368 0.3728 90 61 52
-0.7405 -0.2217 0.8706 141 78 72
-0.8382 -0.2879 0.5508 157 92 86
-0.5482 -0.0216 0.7730 166 99 95
-0.7591 -0.6108 0.2164 115 71 62
-0.6654 -0.5922 0.9559 102 57 58
-0.3797 -0.1443 0.1087 133 85 79
-0.7179 -0.7042 0.2098 118 76 73
-0.5356 -0.4941 0.4923 144 82 71
-0.9064 -0.5503 0.9240 249 153 162
-0.8431 -0.0288 0.8786 183 100 97
-0.7669 -0.2974 0.9385 144 91 91
-0.5955 -0.0937 0.7359 137 77 74
-0.3581 -0.3490 0.1617 145 93 85
-0.7571 -0.1613 1.4744 153 98 91
-0.6638 -0.0903 0.3340 159 154 149
-0.6163 -0.1334 0.4545 122 72 65
-0.8300 -0.3381 0.8302 108 66 62
-0.3943 -0.3809 0.3646 151 104 99
-0.4673 -0.1983 0.1697 151 90 81
-0.3397 -0.1022 0.6115 160 92 86
-0.7517 -0.8081 0.5516 121 76 67
-0.6857 -0.2305 0.2196 157 87 82
-0.8231 -0.3965 1.3813 72 50 54
-0.5330 -0.2087 1.3998 99 75 85
-0.7933 -0.6252 0.3283 98 63 55
-0.4763 -0.1709 0.3698 128 81 74
-0.4864 -0.1766 1.6196 99 63 62
-0.8009 -0.2178 0.2799 111 73 69
-0.8631 -0.5687 0.7005 138 82 74
-0.2755 -0.2715 0.9743 144 142 138
-0.7033 -0.2581 1.7625 213 142 146
-0.6905 -0.0311 0.3367 135 105 106
-0.7439 -0.2908 0.1037 137 78 71
-0.8021 -0.3866 1.2832 47 38 39
-0.8150 -0.4214 0.4539 124 77 68
-0.3802 -0.2077 0.6510 142 82 73
-0.6153 -0.5376 1.6897 166 101 95
-0.4742 -0.3690 0.5269 123 71 66
-0.6123 -0.6097 0.1937 94 65 54
-0.8570 -0.3499 0.2314 141 83 75
-0.2737 -0.4327 0.2071 160 92 86
-0.5872 -0.4157 1.9055 173 107 103
-0.9124 -0.4548 0.4312 133 78 69
-0.6229 -0.3813 2.0053 168 103 102
-0.6285 -0.0533 0.1042 122 131 124
-0.5415 -0.4865 0.8222 146 83 75
-0.4895 -0.6276 0.2744 100 68 61
-0.6287 -0.7277 0.3863 83 62 52
-0.6769 -0.1532 0.2033 136 82 75
-0.7744 -0.4403 0.4953 119 72 63
-0.6114 -0.9099 0.6687 150 141 131
-0.7489 -0.2369 1.2901 52 35 37
-0.8973 -0.6778 0.7128 145 84 76
-0.2711 -0.1476 0.9529 205 129 143
-0.6025 -0.4107 1.8094 167 102 97
-0.7972 -0.1096 0.2928 150 94 85
-0.6091 -0.7761 0.1605 111 91 77
-0.5029 -0.3036 1.0293 79 63 73
-0.7712 -0.5624 1.9319 172 109 107
-0.4457 -0.3938 0.1869 137 84 74
-1.0680 -0.7478 0.8540 246 191 221
-0.4936 -0.0546 0.5972 180 102 95
-0.5156 -0.3780 1.5449 178 105 103
-0.4230 -0.4967 0.1191 137 84 75
-0.7988 -0.2949 1.2983 45 36 36
-0.3707 -0.0466 0.8738 166 94 95
-0.8122 -0.0412 0.5483 164 89 85
-0.7742 -0.5090 0.2317 140 80 73
-0.4175 -0.5036 0.2096 141 86 78
-0.7567 -0.6515 1.8073 163 100 99
-0.6415 0.0021 0.8886 192 117 117
-0.8808 -0.3777 0.1122 119 75 65
-0.8430 -0.1534 0.3602 140 99 94
-0.9267 -0.6467 0.8249 156 93 88
-0.8545 -0.3926 0.5267 127 74 67
-0.4362 -0.0582 0.4686 120 91 87
-0.8186 -0.3328 0.7740 109 63 58
-0.4215 -0.5457 0.2124 138 84 76
-0.3954 -0.2258 0.9248 147 92 79
-0.8481 -0.5992 0.6011 141 81 74
-0.5355 -0.1669 0.6271 178 92 90
-0.8165 -0.3597 0.1632 129 77 68
-0.7876 -0.1592 1.1615 112 76 94
-0.2690 -0.1358 0.7880 148 105 103
-0.7119 -0.2050 0.2612 121 72 67
-0.7486 -0.6177 0.2763 97 66 56
-0.8633 -0.3104 0.1455 144 116 109
-0.8514 -0.4103 0.2539 141 82 74
-0.8080 -0.3257 0.4305 116 72 69
-0.7521 -0.1872 1.2980 58 40 43
-0.7637 -0.1911 0.5240 122 74 64
-0.5129 -0.7080 0.2664 102 78 71
-0.4321 -0.3211 0.2593 136 81 71
-0.3491 -0.0631 0.9266 178 94 91
-0.6418 -0.8413 0.5330 121 84 75
-0.5583 -0.4380 1.2344 88 69 79
-0.6454 -0.6129 0.2483 89 65 55
-0.7145 0.0062 0.4948 141 108 100
-0.4153 -0.3852 0.4348 144 86 78
-0.7336 -0.6334 0.1161 104 66 57
-0.4596 -0.1484 1.8114 164 100 100
-0.5656 -0.6541 0.9050 123 73 66
-0.2630 -0.3923 0.1452 157 90 84
-0.8539 -0.3430 0.4914 133 81 77
-0.3689 -0.6013 0.2020 107 69 59
-0.8389 -0.5627 0.2418 134 81 75
-0.4192 -0.3972 0.1350 140 83 73
-0.4790 -0.6258 0.7094 149 90 81
-0.4689 -0.6579 0.1581 122 77 67
-0.7830 -0.3076 0.6724 129 70 65
-0.4236 -0.1059 0.1982 140 88 83
-0.4468 -0.1472 0.4771 131 76 69
-0.5222 -0.7434 0.9155 122 71 67
-0.4788 -0.1039 0.6392 184 97 92
-0.6615 0.0031 0.5332 164 122 114
-0.5461 -0.4476 0.5061 74 17 14
-0.8811 -0.6829 0.3913 113 95 87
-0.7245 -0.4406 0.1376 138 78 71
-0.4662 -0.0209 1.7806 201 131 128
-0.6838 -0.0757 0.4251 128 98 90
-0.9035 -0.4331 0.4708 130 75 66
-0.8895 -0.8259 0.9262 154 176 169
-0.5141 -0.4442 0.8787 136 80 69
-0.8164 -0.7443 0.1146 138 106 102
-0.7224 -0.4100 0.1752 138 79 72
-0.5343 -0.0079 0.8574 172 98 89
-0.7762 -0.4972 0.1867 137 77 70
-0.8188 0.0125 0.9073 190 102 101
-0.6100 -0.1053 1.7997 170 108 106
-0.7166 -0.5553 1.8089 169 108 106
-0.5536 -0.5555 1.5089 128 81 79
-0.7402 -0.5065 1.8730 175 105 107
-0.6448 -0.7024 1.8280 154 96 97
-0.3821 -0.5076 0.1433 104 67 57
-0.5898 -0.8089 0.2422 98 71 61
-0.7672 -0.1395 0.4415 126 81 77
-0.6536 -0.8079 0.5295 120 75 67
-0.8082 -0.2573 0.6875 136 80 73
-0.7003 -0.3487 1.8350 195 129 135
-0.4588 -0.3783 0.3954 138 82 72
-0.8580 -0.0949 0.2102 145 121 112
-0.4991 -0.8446 0.5909 134 93 86
-0.3187 -0.3837 0.1176 157 106 101
-0.7303 -0.5993 0.1661 110 71 62
-0.8887 -0.4812 0.7506 137 80 76
-0.3562 -0.3585 0.2293 154 89 84
-0.7422 -0.2370 0.1048 138 79 73
-0.5952 -0.0300 0.8265 178 97 92
-0.5028 -0.0344 0.7573 172 106 101
-0.5630 -0.5818 0.8366 133 77 70
-0.5248 -0.4309 1.1776 84 72 79
-0.3102 -0.1486 0.5052 174 135 129
-0.5719 -0.9189 0.8642 115 76 71
-0.8324 -0.5426 1.3682 82 66 77
-0.7324 -0.2125 0.7235 141 79 72
-0.7356 -0.3154 1.1376 49 43 46
-0.4846 -0.8643 0.6868 127 79 73
-0.5704 -0.3847 1.6964 178 107 104
-0.7757 -0.1998 0.1221 150 84 78
-0.8015 -0.0935 0.1571 137 97 87
-0.6978 -0.6240 0.2614 94 67 59
-0.7008 -0.6910 1.6006 126 56 59
-0.6967 -0.3944 1.8328 166 103 104
-0.3279 -0.3487 0.2923 154 86 82
-0.9232 -0.6520 0.9106 168 94 92
-0.7075 -0.5699 0.2128 125 76 69
-0.5090 -0.1680 0.2724 148 92 83
-0.8754 -0.4547 0.8714 155 97 97
-0.4840 -0.6237 0.3181 120 76 68
-0.6239 -0.2574 1.5936 113 63 60
-0.5073 -0.8197 0.9468 170 98 99
-0.4298 -0.1974 0.5096 174 95 89
-0.9290 -0.6205 0.6115 144 83 76
-0.5849 -0.5710 1.1140 83 66 72
-0.7015 -0.4760 0.1213 136 76 71
-0.7440 -0.0798 0.2782 140 123 118
-0.6671 -0.0053 0.1764 111 90 86
-0.8217 -0.4027 0.1680 136 76 68
-0.5043 -0.4950 0.5022 142 81 69
-0.6325 -0.7188 0.3031 96 75 66
-0.7176 -0.5937 1.3726 61 48 49
-0.5022 -0.4691 0.7516 142 82 73
-0.5658 -0.1341 0.9279 189 94 92
-0.5272 -0.7405 0.4569 115 91 84
-0.8765 -0.4689 0.1107 101 83 77
-0.8273 -0.5821 0.8963 155 88 83
-0.5210 -0.1999 0.1740 150 86 79
-0.4921 -0.5713 0.2209 117 76 64
-0.5651 -0.1875 2.0169 174 112 112
-0.5006 -0.5753 0.7427 146 85 76
-0.7014 -0.1609 0.2650 129 78 72
-0.7014 -0.1401 1.5689 165 105 104
-0.7671 -0.6935 0.9367 207 115 120
-0.8875 -0.3546 0.1114 118 73 63
-0.6289 -0.6030 0.1390 98 63 54
-0.6268 -0.9257 0.8371 162 176 167
-0.6915 -0.2263 0.1073 148 84 77
-0.7802 -0.4185 0.3961 126 73 66
-0.7493 -0.4188 0.2531 132 79 71
-0.7823 -0.5989 0.1209 121 74 66
-0.5148 -0.7752 0.7597 107 69 66
-0.7066 -0.5021 0.1760 146 85 78
-0.4290 -0.2326 0.3597 135 80 73
-0.8559 -0.8358 0.5207 119 74 70
-0.5627 -0.3995 1.7919 179 110 107
-0.4244 -0.4445 0.1240 140 85 76
-0.5174 -0.8199 0.7140 133 82 75
-0.8871 -0.5475 0.5639 141 82 76
-0.3146 -0.3585 0.1637 158 91 85
-0.4884 -0.5774 0.8923 147 85 76
-0.8465 -0.6591 0.6349 144 83 76
-0.8253 -0.3844 0.1076 121 73 65
-0.5463 -0.2041 0.2820 132 78 73
-0.4364 -0.4755 0.3696 123 79 71
-0.8111 -0.0074 0.7222 165 98 93
-0.7576 -0.1536 0.2242 144 85 78
-0.8117 -0.7494 0.1610 141 104 99
-0.7758 -0.6489 0.1738 115 72 64
-0.7761 -0.8031 0.1024 130 127 120
-0.6527 -0.2096 1.2061 97 41 78
-0.8265 -0.5498 1.1036 51 41 43
-0.9270 -0.5521 0.9327 215 143 155
-0.8086 -0.8211 0.7661 135 91 83
-0.7852 -0.3755 1.5896 147 80 77
-0.4893 -0.1661 0.3277 144 91 83
-0.3567 -0.3019 0.2171 151 88 82
-0.4948 -0.3095 1.0817 87 69 76
-0.7434 -0.3645 0.4040 95 56 51
-0.5655 -0.9745 0.7464 155 170 158
-0.9657 -0.6361 0.6066 147 86 79
-0.8862 -0.6516 0.5490 138 82 75
-0.7709 -0.4770 1.9469 161 101 101
-0.3713 -0.2117 0.7075 146 87 80
-0.5532 -0.7209 0.7151 106 66 57
-0.7943 -0.6081 0.8442 138 79 74
-0.7208 -0.3557 1.8955 178 110 114
-0.4693 -0.6006 0.1174 125 78 68
-0.6722 -0.2114 1.4896 156 95 91
-0.6500 -0.0691 1.8573 190 122 123
-0.8242 -0.5587 0.9278 199 120 124
-0.5643 -0.7488 0.8939 105 65 58
-0.2795 -0.2827 0.1269 168 99 95
-0.6582 -0.3153 1.1253 36 30 31
-0.8060 -0.7760 0.7234 116 72 65
-0.7853 -0.1849 0.8931 148 82 77
-0.7968 -0.3573 0.2651 136 79 74
-0.5564 -0.7829 0.3676 112 106 98
-0.7756 -0.7922 0.8674 113 73 65
-0.6553 -0.2953 2.0196 163 102 97
-0.8717 -0.5415 0.9225 181 99 98
-0.7054 -0.1054 0.2209 118 78 71
-0.8131 -0.6412 0.1665 127 77 71
-0.6407 -0.0607 0.8263 178 96 92
-0.7794 -0.3199 0.7162 117 68 64
-0.7768 -0.2020 1.4016 128 75 83
-0.7390 -0.6646 0.3130 95 70 60
-0.7208 -0.5331 1.2084 76 57 64
-0.3664 -0.2754 0.7607 140 91 85
-0.8327 -0.1380 0.1303 158 94 87
-0.7396 -0.1183 0.2900 141 90 83
-0.2527 -0.2382 0.8531 156 159 153
-0.7897 -0.2000 0.5885 127 76 68
-0.5024 -0.0498 0.5509 180 105 99
-0.4322 -0.2303 1.1359 68 59 72
-0.5407 -0.1784 0.3334 126 78 72
-0.8353 -0.5009 0.6184 137 81 73
-0.4240 -0.2252 1.7623 187 110 114
-0.9124 -0.7494 0.9356 228 146 150
-0.4428 -0.3213 0.1968 141 81 74
-0.5509 -0.3587 1.8533 178 113 113
-0.5898 -0.6367 1.3613 57 49 51
-0.7178 -0.5623 0.1604 118 73 63
-0.3777 -0.2028 0.6074 146 85 76
-0.8464 -0.4905 0.1970 139 76 70
-0.7896 -0.1012 0.5955 161 91 87
-0.5278 -0.6307 0.3365 102 71 61
-0.5149 -0.2242 1.9997 188 115 115
-0.6282 -0.1680 0.4004 116 71 63
-0.5598 -0.7637 0.4284 103 80 70
-0.4826 -0.3599 0.5630 128 73 65
-0.8309 -0.3901 0.5793 135 82 75
-0.7297 -0.1123 0.7266 147 81 76
-0.7837 -0.5178 1.8046 173 105 103
-0.6257 -0.6449 0.1451 99 68 58
-0.8005 -0.2344 0.4843 126 73 69
-0.5954 -0.0743 0.8724 183 101 95
-0.8175 -0.5478 0.5438 126 71 63
-0.7387 -0.5002 1.3644 57 49 55
-0.4807 -0.3944 0.8595 133 75 68
-0.8166 -0.6841 0.2023 142 86 81
-0.5329 -0.2396 0.1179 147 83 75
-0.7533 -0.1443 1.3033 66 47 55
-0.9486 -0.7734 0.6888 159 118 118
-0.3306 -0.3491 0.1192 156 91 86
-0.6260 -0.1006 1.6136 129 56 62
-0.5151 -0.2066 0.2211 149 88 81
-0.7680 -0.3902 0.4962 128 75 67
-0.5974 -0.8193 0.2054 84 66 61
-0.8048 -0.7062 0.1586 137 81 77
-0.5592 -0.6653 0.6301 143 84 74
-1.0165 -0.7174 0.7213 152 103 103
-0.8049 -0.5014 1.0605 73 61 68
-0.8370 -0.2281 0.7934 153 88 83
-0.6987 -0.3293 1.3875 117 83 105
-0.4938 -0.0891 0.5437 180 99 93
-0.6320 -0.1213 0.3661 138 102 93
-0.6679 -0.1054 0.9868 145 86 97
-0.8463 -0.4912 1.2900 93 71 81
-0.6524 -0.0351 0.4781 141 116 108
-0.3744 -0.5564 0.1451 141 129 119
-0.5360 -0.3457 1.0393 71 60 65
-0.7544 -0.5028 1.7753 172 102 103
-0.9172 -0.5382 0.1469 109 83 77
-0.6876 -0.5090 1.8669 174 109 107
-0.4268 -0.6411 0.1361 116 71 62
-0.8431 -0.4787 0.8273 125 75 70
-0.8137 -0.3049 0.2182 141 81 75
-0.3996 -0.2509 1.0136 100 74 94
-0.8641 -0.4003 0.8937 140 81 80
-0.3771 -0.6439 0.1077 110 73 63
-0.4264 -0.5892 0.1119 126 82 73
-0.6806 -0.7833 0.9236 141 82 77
-0.6440 -0.2301 0.2240 142 82 75
-0.7473 -0.3065 0.3118 109 68 61
-0.3858 -0.5917 0.1046 138 122 114
-0.8099 -0.3436 0.4756 123 74 67
-0.7315 -0.1778 0.4256 92 60 55
-0.7335 -0.1928 1.7203 179 115 116
-0.6961 -0.8686 0.7430 122 85 79
-0.5012 -0.7975 0.5077 126 87 78
-0.4716 -0.4988 0.9490 182 103 101
-0.4663 -0.6610 0.2085 115 74 64
-0.7435 -0.0571 0.5498 136 83 74
-0.8568 -0.5733 0.1761 95 65 54
-0.3422 -0.0903 0.8702 163 107 104
-0.7381 -0.8109 0.6079 121 74 65
-0.4164 -0.2533 0.1428 142 85 75
-0.7504 -0.2665 0.3553 98 61 55
-0.5219 -0.1758 1.1087 74 66 83
-0.5703 -0.6892 0.9119 112 62 57
-0.4486 -0.6106 0.2584 105 67 61
-0.6966 -0.6256 0.3078 86 69 61
-0.4262 -0.1654 0.2222 155 85 78
-0.4762 -0.3742 0.7728 124 72 65
-0.7434 -0.5930 1.1006 75 59 62
-0.7961 -0.1581 0.3343 138 83 76
-0.7526 -0.4073 0.3421 134 79 73
-0.7260 -0.2824 1.2857 67 46 49
-0.7894 0.0158 0.8708 166 99 93
-0.6917 -0.5053 1.4127 110 65 63
-0.7207 -0.0109 0.7084 154 109 105
-0.8262 -0.3776 0.4191 124 77 68
-0.9152 -0.5143 0.2084 86 62 57
-0.8643 -0.5458 0.5056 132 78 72
-0.7779 -0.6012 0.1728 122 73 65
-0.8019 -0.0636 0.9441 218 116 116
-0.3704 -0.1097 0.6637 160 91 83
-0.7302 -0.3636 0.1928 138 79 72
-0.7641 -0.6571 0.7736 139 77 72
-0.5773 -0.5496 1.7384 173 106 102
-0.5562 -0.6613 0.2282 103 69 59
-0.8164 -0.4499 0.2019 140 81 75
-0.4794 -0.5070 0.2374 130 81 69
-0.7229 0.0434 0.8826 143 149 140
-0.3588 -0.1924 0.5053 138 95 88
-0.7470 -0.7450 0.1811 139 117 111
-0.8298 -0.5262 0.6939 134 78 71
-0.5526 -0.2277 1.2602 134 100 124
-0.5032 -0.3350 1.3287 98 82 94
-0.4605 -0.4822 0.4314 115 71 63
-0.8406 -0.7258 0.8448 143 82 75
-0.4515 -0.4601 0.1412 132 84 71
-0.7548 -0.7936 0.8046 116 72 64
-0.4164 -0.2962 0.1415 142 83 75
-0.8120 -0.3981 0.2088 129 78 69
-0.8151 -0.4247 1.4532 146 83 77
