ply
format ascii 1.0
element vertex 1458
property float x
property float y
property float z
property uchar red
property uchar green
property uchar blue
end_header
1.6521 0.1456 2.0938 95 91 85
1.6716 0.1462 2.1430 116 101 98
1.6720 0.1751 0.1835 72 68 66
1.6754 0.1895 1.1990 85 78 80
1.6813 0.1878 1.2463 95 88 88
1.6817 0.1940 1.2985 104 90 89
1.6889 0.1683 1.3488 115 96 95
1.6912 0.1643 1.3966 231 212 204
1.6914 0.1700 1.4396 218 201 194
1.6826 0.1500 1.4896 177 167 160
1.6959 0.1514 1.5398 160 147 144
1.6892 0.1986 1.5934 104 96 91
1.6503 0.1982 1.6041 104 108 111
1.6717 0.1707 1.6829 104 98 88
1.6987 0.1797 1.7562 90 90 85
1.6937 0.1690 1.8460 91 86 77
1.6987 0.1512 1.9863 104 95 91
1.6726 0.1552 2.1901 109 98 90
1.6736 0.1885 2.2866 65 63 56
1.6784 0.2216 0.1810 76 67 62
1.6852 0.2302 0.2219 94 87 76
1.6802 0.2331 1.1907 136 128 130
1.6830 0.2311 1.2418 106 95 94
1.6872 0.2279 1.2868 109 100 97
1.6887 0.2320 1.3417 140 126 122
1.6856 0.2272 1.3891 161 144 136
1.6890 0.2177 1.4370 169 155 148
1.6922 0.2184 1.4833 129 116 111
1.6968 0.2030 1.5341 104 95 89
1.6930 0.2027 1.6308 107 96 90
1.6789 0.2315 1.6817 180 158 150
1.6835 0.2200 1.7235 81 79 74
1.6898 0.2189 1.7720 64 58 55
1.6775 0.2040 2.2534 65 67 55
1.6742 0.2698 0.1819 98 83 77
1.6599 0.2551 0.2258 84 76 72
1.6737 0.2863 1.1495 251 252 251
1.6758 0.2582 1.1657 214 198 202
1.6744 0.2881 1.2245 243 242 241
1.6857 0.2688 1.2982 106 104 99
1.6879 0.2719 1.3736 134 124 119
1.6875 0.2681 1.4449 164 150 144
1.6908 0.2697 1.4952 136 128 121
1.6675 0.2804 1.5239 186 176 171
1.6691 0.2682 1.5923 192 171 163
1.6710 0.2593 1.6380 200 172 164
1.6640 0.2888 1.6900 238 214 202
1.6955 0.2926 1.7390 106 97 91
1.6715 0.3228 0.1732 131 114 107
1.6657 0.3203 1.1923 252 254 253
1.6602 0.3268 1.2404 190 201 202
1.6867 0.3212 1.3246 72 81 78
1.6837 0.3146 1.4028 131 125 121
1.6872 0.3120 1.4751 134 124 119
1.6819 0.3079 1.5750 131 123 116
1.6587 0.3065 1.6425 219 189 178
1.6751 0.3258 1.6539 139 128 118
1.6851 0.3446 1.7046 170 152 141
1.6832 0.3358 1.7502 170 151 139
1.6744 0.3431 1.8223 170 154 143
1.6901 0.3406 1.8532 164 149 138
1.6917 0.3354 1.9018 138 127 116
1.6739 0.3783 0.1754 78 77 71
1.6507 0.3755 0.2931 54 48 43
1.6731 0.3685 1.3402 89 100 101
1.6882 0.3594 1.3867 90 100 96
1.6881 0.3614 1.4547 105 100 96
1.6918 0.3556 1.5035 140 131 127
1.6874 0.3580 1.5568 129 118 112
1.6895 0.3755 1.6086 139 125 118
1.6765 0.3775 1.6612 171 156 144
1.6704 0.3911 1.7092 164 155 148
1.6673 0.3891 1.7570 179 164 155
1.6784 0.3954 1.8301 193 180 170
1.6531 0.3752 1.8500 244 235 219
1.6745 0.3740 1.9201 243 234 222
1.6690 0.3729 1.9818 228 212 196
1.6865 0.3731 2.0231 169 157 144
1.6830 0.3659 2.0623 150 139 125
1.6870 0.3917 2.1245 173 157 145
1.6913 0.3982 2.2102 136 126 115
1.6949 0.3915 2.2690 86 79 68
1.6770 0.4249 0.1760 94 88 81
1.6618 0.4232 1.7405 153 147 142
1.6946 0.4283 1.7607 162 147 137
1.6810 0.4209 1.8645 204 191 179
1.6828 0.4214 1.9169 206 200 191
1.6792 0.4230 1.9634 221 216 207
1.6752 0.4225 2.0085 235 227 212
1.6706 0.4193 2.0594 219 202 186
1.6680 0.4077 2.1173 193 178 163
1.6663 0.4217 2.1594 201 185 173
1.6732 0.4213 2.2280 207 190 176
1.6715 0.4155 2.2738 185 168 153
1.6660 0.4391 2.3136 152 142 132
1.6749 0.4873 0.1145 126 96 96
1.6730 0.4665 0.1723 123 106 100
1.6867 0.4669 2.0131 116 116 110
1.6801 0.4717 2.0735 105 106 100
1.6812 0.4750 2.1181 110 108 102
1.6717 0.4780 2.1667 124 122 117
1.6696 0.4575 2.2266 137 132 125
1.6664 0.4561 2.2769 131 128 121
1.6807 0.5257 0.1346 132 94 84
1.6750 0.5223 0.1567 135 115 108
1.6998 0.5236 2.1216 138 127 117
1.6907 0.5221 2.1771 172 150 140
1.6717 0.5258 2.2275 207 185 172
1.6707 0.5258 2.2761 193 179 166
1.6719 0.5215 2.3158 172 166 155
1.6723 0.5741 0.1322 172 131 126
1.6767 0.5730 0.1562 152 127 121
1.6755 0.5772 2.2774 115 112 104
1.6791 0.6338 0.1326 191 152 147
1.6745 0.6213 0.1563 167 130 122
1.6707 0.6829 0.1350 184 166 162
1.6756 0.6700 0.1562 136 117 113
1.6760 0.7252 0.1301 180 176 175
1.6900 0.7240 0.1569 140 136 132
1.6725 0.7910 0.0956 242 237 236
1.6673 0.7711 0.1320 171 168 166
1.6660 0.7694 0.1610 137 132 129
1.6655 0.8302 0.1149 246 249 249
1.6714 0.8814 0.1176 218 209 202
1.6684 0.9323 0.1231 162 140 136
1.6731 0.9807 0.0575 255 249 248
1.6740 0.9798 0.1280 174 143 139
1.6674 1.0370 0.0621 157 142 139
1.6671 1.0255 0.1041 117 88 85
1.6758 1.0248 0.1697 140 111 105
1.6940 1.0810 0.0700 81 54 53
1.6733 1.0775 0.1093 126 105 102
1.6788 1.0782 0.1832 98 99 98
1.6727 1.1340 0.1216 109 99 101
1.6709 1.1276 0.1644 173 170 174
1.6725 1.1217 0.2015 161 165 162
1.6754 1.1598 0.0863 82 78 75
1.6540 1.1877 0.1117 215 212 218
1.6762 1.1839 0.1849 182 172 173
1.6748 1.2298 -0.0138 219 194 184
1.6782 1.2246 0.0335 191 176 172
1.6747 1.2388 0.0830 224 224 230
1.6728 1.2157 0.1255 197 192 191
1.6656 1.2311 0.1737 195 198 194
1.6638 1.2929 0.0318 219 214 220
1.6510 1.2964 0.0799 253 255 255
1.6784 1.2621 0.1115 255 251 251
1.6866 1.2576 0.1565 215 213 209
1.6676 1.3096 -0.0407 149 147 157
1.6701 1.3213 0.0406 244 243 246
1.6826 1.3015 0.0985 251 241 244
1.6652 1.3258 0.1144 255 255 253
1.6695 1.3707 -0.0358 152 157 164
1.6635 1.3951 0.0467 255 255 253
1.6668 1.3583 0.1232 219 215 211
1.6704 1.4341 -0.0412 212 211 213
1.6550 1.4049 0.1088 217 210 208
1.6623 1.5300 -0.0516 247 246 245
1.6875 1.5443 0.0211 182 181 174
1.6608 1.5243 0.0588 209 202 198
1.6693 1.5866 -0.0687 253 255 253
1.6567 1.5821 -0.0008 225 219 211
1.6668 1.6261 -0.0846 254 255 253
1.6625 1.6451 -0.0457 242 243 239
1.6623 1.6329 0.0146 216 208 201
1.6588 1.6891 -0.0688 253 255 252
1.6622 1.6745 -0.0029 223 213 207
1.6640 1.7496 -0.0807 246 247 244
1.6753 1.7972 -0.0794 253 255 253
1.6590 1.7748 -0.0400 225 207 202
1.6586 1.8275 -0.1127 255 255 253
1.6702 1.8506 -0.0718 248 248 244
1.6850 1.9161 -0.1165 255 255 251
1.6657 1.9252 -0.0781 237 235 231
1.6607 2.0492 -0.1063 253 255 253
1.6631 2.0123 -0.0764 210 206 203
1.6927 2.1466 -0.1293 255 255 253
1.6699 2.1047 -0.0832 233 233 231
1.6581 2.1535 -0.1206 235 229 227
1.6652 2.2178 -0.1462 213 207 204
1.6729 2.2543 -0.1273 205 203 203
1.6587 2.2570 -0.0976 235 237 235
1.6583 2.3195 -0.0914 158 168 171
1.6621 2.3734 -0.0928 253 255 253
1.6527 2.4379 -0.1546 253 238 234
1.6597 2.4012 -0.1258 176 179 181
1.6690 2.4724 -0.1360 253 255 253
1.6758 2.4681 -0.0946 196 205 205
1.6550 2.5345 -0.1162 156 158 156
1.6740 2.6160 -0.1600 255 255 251
1.6526 2.6103 -0.1086 253 255 253
1.6671 2.6530 -0.1525 201 202 201
1.6635 2.7012 -0.1433 254 253 248
1.6557 2.7581 -0.1553 245 245 240
1.6698 2.7803 -0.1164 248 248 243
1.6890 2.8133 -0.1348 254 255 253
1.6986 2.8830 -0.1337 254 255 251
1.6613 2.9069 -0.1413 252 251 247
1.6595 3.0244 -0.1306 249 250 243
1.6708 3.0589 -0.1513 253 255 253
1.6563 3.0836 -0.1220 253 255 253
1.6611 3.1145 -0.1619 255 255 252
1.6621 3.1369 -0.1429 253 255 251
1.6508 3.1603 -0.1524 253 255 252
1.6905 3.2135 -0.1361 252 253 250
1.6650 3.2730 -0.1873 253 255 253
1.6523 3.2663 -0.1441 253 255 253
1.6716 3.3301 -0.1712 253 255 253
1.6820 3.3683 -0.1806 250 240 241
1.6974 3.4195 -0.1594 250 252 248
1.6736 3.4884 -0.1744 253 251 247
1.6532 3.5183 -0.1717 214 222 223
1.6588 3.5643 -0.1662 253 255 253
1.6754 3.5514 -0.1432 253 255 253
1.6746 3.6325 -0.2079 238 235 238
1.6732 3.6234 -0.1615 255 255 253
1.6527 3.6508 -0.1726 254 255 253
1.6819 3.7352 -0.2531 241 243 242
1.6569 3.7253 -0.1390 253 255 253
1.6738 3.7825 -0.1662 253 255 253
1.6886 3.7623 -0.1436 253 255 253
1.6611 3.8113 -0.1822 255 255 253
1.6628 3.8463 -0.1354 253 255 253
1.6576 3.8929 -0.1550 253 255 253
1.6689 3.9264 -0.1773 226 233 233
1.6872 3.9582 -0.1655 255 255 253
1.6879 4.1108 -0.1873 255 255 253
1.6853 4.3351 -0.2121 254 254 252
1.6889 4.5849 -0.2211 255 251 253
1.6560 4.6261 -0.2784 251 254 249
1.6527 4.6919 -0.2410 182 191 195
1.7083 -4.7782 -0.1649 116 135 144
1.7437 -4.7422 -0.1569 114 133 142
1.7356 -4.7444 -0.0362 180 178 172
1.7202 -4.5864 -0.1691 99 120 131
1.7470 -4.5058 -0.1495 99 121 129
1.7394 -4.3024 0.0346 163 162 158
1.7148 -4.2400 0.0307 173 170 164
1.7118 -4.1805 -0.0906 115 127 135
1.7293 -4.1806 0.0586 127 132 130
1.7185 -4.1003 0.0573 161 161 159
1.7482 -4.0055 0.0294 122 128 130
1.7015 -4.0427 0.0504 157 158 153
1.7263 -3.9098 0.0226 120 129 131
1.7203 -3.8805 -0.0717 105 122 130
1.7242 -3.8674 0.0266 110 117 117
1.7451 -3.8317 -0.0696 97 116 128
1.7306 -3.7671 0.0488 115 124 123
1.7079 -3.7102 0.0453 117 126 125
1.7447 -3.6918 -0.0003 105 115 114
1.7300 -3.6377 -0.0392 102 115 120
1.7407 -3.6180 0.0129 104 114 116
1.7201 -3.5795 0.0186 100 113 117
1.7275 -3.5384 -0.0643 130 143 150
1.7243 -3.4909 -0.0980 120 135 142
1.7190 -3.4860 -0.0174 99 115 120
1.7245 -3.4081 -0.0825 132 141 145
1.7143 -3.3918 -0.1150 120 137 143
1.7281 -3.3680 -0.0288 119 134 142
1.7218 -3.2786 -0.0611 122 133 139
1.7325 -3.1838 -0.0787 112 122 131
1.7036 -3.0671 -0.0629 132 140 147
1.7419 -3.0692 0.0025 107 111 117
1.7272 -3.0212 -0.0031 100 108 112
1.7245 -2.9716 0.0025 108 112 116
1.7129 -2.9442 -0.0645 162 166 171
1.7128 -2.9134 -0.0205 130 129 132
1.7130 -2.9450 0.0148 106 117 118
1.7247 -2.8540 -0.0778 138 148 154
1.7078 -2.8316 -0.0609 151 153 160
1.7322 -2.8063 -0.0177 197 178 171
1.7314 -2.8491 0.0172 117 121 120
1.7226 -2.7757 0.0042 188 173 165
1.7192 -2.6844 -0.0590 107 119 124
1.7240 -2.6692 -0.0098 151 142 149
1.7264 -2.6336 -0.0439 110 124 133
1.7098 -2.6496 0.0192 180 167 158
1.7200 -2.5600 -0.0531 115 123 132
1.7240 -2.5333 -0.0416 117 125 132
1.7287 -2.5227 0.0254 127 132 130
1.7317 -2.4655 -0.0400 125 128 137
1.7456 -2.4571 0.0192 122 123 124
1.7239 -2.4292 -0.0508 142 141 146
1.7279 -2.4314 0.0131 119 126 125
1.7489 -2.3877 -0.0636 191 183 187
1.7256 -2.3616 -0.0256 126 132 136
1.7158 -2.3698 0.0043 137 135 133
1.7432 -2.3012 -0.0299 228 203 197
1.7262 -2.2673 -0.0686 200 187 183
1.7339 -2.2670 -0.0203 205 184 176
1.7233 -2.2842 0.0150 145 140 142
1.7275 -2.2182 -0.0087 229 199 187
1.7180 -2.1768 -0.0172 208 186 180
1.7284 -2.1255 -0.0063 208 181 172
1.7117 -2.1406 0.0120 220 192 180
1.7098 -2.0711 -0.0284 156 144 148
1.7301 -2.0210 -0.0080 157 147 142
1.7172 -1.9685 -0.0168 135 136 138
1.7271 -1.9064 -0.0048 142 138 137
1.7051 -1.8700 -0.0290 117 123 123
1.7192 -1.8212 -0.0220 112 118 120
1.7285 -1.8341 0.0196 170 153 147
1.7169 -1.7601 -0.0193 93 110 115
1.7145 -1.7625 0.0049 120 118 116
1.7280 -1.7026 -0.0089 94 109 115
1.7378 -1.7415 0.0335 154 135 126
1.7216 -1.6642 0.0238 107 113 113
1.7256 -1.6396 0.0290 112 119 114
1.7214 -1.6081 0.0886 167 151 150
1.7315 -1.5752 0.0347 117 127 131
1.7035 -1.5208 0.0612 128 137 142
1.7155 -1.4716 0.0860 120 129 131
1.7170 -1.4223 0.0936 140 142 145
1.7070 -1.3805 0.0915 189 186 189
1.7297 -1.3261 0.1296 149 151 155
1.7149 -1.2874 0.1264 101 115 122
1.7294 -1.2822 0.1550 127 139 143
1.7295 -1.2305 0.1323 121 128 135
1.7255 -1.2241 0.1801 125 136 141
1.7289 -1.1734 0.1735 108 116 118
1.7295 -1.1760 0.2046 109 113 113
1.7294 -1.1405 0.1759 88 99 100
1.7339 -1.1273 0.2119 119 126 126
1.7275 -1.0837 0.1306 86 79 76
1.7305 -1.0828 0.1692 108 104 100
1.7232 -1.0831 0.2180 113 122 123
1.7149 -1.0253 0.1219 104 76 71
1.7245 -1.0223 0.1847 97 98 94
1.7232 -1.0215 0.2231 110 121 122
1.7321 -0.9771 0.1405 113 90 85
1.7263 -0.9852 0.1821 123 120 116
1.7288 -0.9247 0.1235 166 140 128
1.7225 -0.8746 0.1213 149 115 107
1.7228 -0.8315 0.1206 153 115 113
1.7234 -0.7752 0.1260 164 129 124
1.7213 -0.7237 0.1302 157 126 118
1.7218 -0.6810 0.1312 156 126 116
1.7299 -0.6312 0.1322 143 118 112
1.7242 -0.5732 0.1285 139 115 107
1.7234 -0.5214 0.1316 159 126 118
1.7263 -0.4756 0.1314 131 102 97
1.7222 -0.4254 0.1394 112 90 86
1.7342 -0.4217 0.1573 95 71 69
1.7248 -0.3737 0.1475 105 87 83
1.7208 -0.3219 0.1478 93 79 75
1.7499 -0.3099 0.2218 72 65 66
1.7235 -0.2695 0.1660 67 61 57
1.7263 -0.2283 0.1732 66 65 62
1.7184 -0.1789 0.1787 72 74 71
1.7227 -0.1777 0.2258 77 70 72
1.7252 -0.1314 0.1991 79 73 71
1.7379 -0.1184 0.2343 109 98 92
1.7457 -0.1404 0.3741 153 124 123
1.7465 -0.1053 0.4549 113 96 93
1.7244 -0.0822 0.2191 134 118 115
1.7353 -0.0787 0.2575 151 137 133
1.7335 -0.0831 0.3275 190 169 164
1.7374 -0.0513 0.5064 96 96 100
1.7477 -0.0644 1.4888 42 42 33
1.7402 -0.0668 1.8674 107 107 94
1.7055 -0.0234 0.2288 160 153 147
1.7276 -0.0387 0.2661 169 157 152
1.7355 -0.0350 0.3108 156 141 135
1.7405 -0.0346 0.3650 183 170 165
1.7247 -0.0380 0.4244 61 55 48
1.7298 -0.0304 0.4594 68 65 63
1.7183 -0.0141 1.4416 111 115 116
1.7230 -0.0354 1.5822 71 65 57
1.7335 -0.0153 1.6189 70 65 59
1.7361 -0.0153 1.8252 75 72 65
1.7019 -0.0038 1.8761 63 68 60
1.7208 0.0243 0.2130 112 109 105
1.7341 0.0092 0.2663 147 141 138
1.7369 0.0080 0.3171 196 184 180
1.7397 0.0254 0.3676 192 180 176
1.7444 0.0257 0.4188 195 179 176
1.7349 0.0318 0.4667 186 169 165
1.7468 0.0451 0.5198 197 177 176
1.7492 0.0405 0.6263 195 185 185
1.7337 0.0267 1.3926 100 92 89
1.7353 0.0242 1.4271 101 102 100
1.7358 0.0184 1.4778 103 97 94
1.7335 0.0158 1.5342 105 97 92
1.7305 0.0264 1.5745 83 76 68
1.7425 0.0460 1.6237 82 81 76
1.7357 0.0236 1.6725 64 59 51
1.7198 0.0101 1.7263 140 134 131
1.7241 0.0093 1.7740 122 118 115
1.7044 0.0006 1.8225 87 87 79
1.7013 0.0073 2.0691 106 102 94
1.7120 0.0820 0.1950 64 61 59
1.7301 0.0677 0.2131 78 69 68
1.7338 0.0583 0.2748 158 147 144
1.7410 0.0515 0.3192 153 140 139
1.7486 0.0795 0.4742 207 193 189
1.7135 0.0831 0.5380 78 66 65
1.7363 0.0988 1.1454 112 107 105
1.7391 0.0986 1.2371 93 85 85
1.7366 0.0879 1.2794 115 103 102
1.7350 0.0673 1.3206 114 106 107
1.7278 0.0776 1.3798 120 110 106
1.7292 0.0670 1.4256 115 107 103
1.7325 0.0601 1.4758 131 122 118
1.7305 0.0513 1.5242 118 109 102
1.7226 0.0858 1.7354 159 163 158
1.7209 0.1159 0.1916 61 58 55
1.7227 0.1211 0.2277 92 72 70
1.7373 0.1118 0.2751 123 112 108
1.7427 0.1100 0.3193 137 124 123
1.7409 0.1339 0.6249 117 106 107
1.7283 0.1106 1.0791 204 197 193
1.7316 0.1435 1.1782 97 90 88
1.7294 0.1364 1.2312 82 76 72
1.7215 0.1286 1.2839 109 97 94
1.7214 0.1216 1.3311 135 116 112
1.7164 0.1230 1.3830 190 166 161
1.7151 0.1186 1.4311 221 208 202
1.7186 0.1169 1.4800 217 199 194
1.7204 0.1123 1.5358 234 216 209
1.7196 0.1102 1.5833 242 228 220
1.7115 0.1285 1.6315 239 220 214
1.7264 0.1279 1.6894 255 244 234
1.7418 0.1461 1.7418 149 135 132
1.7339 0.1485 1.8408 133 125 121
1.7163 0.1727 0.1934 79 78 77
1.7349 0.1659 0.2159 83 84 82
1.7458 0.1558 0.2615 101 101 101
1.7340 0.1899 0.5992 117 115 114
1.7416 0.1841 0.6471 183 182 182
1.7435 0.1702 0.7172 249 237 233
1.7281 0.1607 0.9474 170 158 156
1.7277 0.1727 0.9699 117 103 103
1.7253 0.1897 1.0193 148 136 134
1.7408 0.1721 1.0801 151 139 139
1.7327 0.1730 1.1378 101 94 93
1.7320 0.1781 1.1762 95 88 85
1.7112 0.1789 1.2397 89 81 78
1.7113 0.1725 1.2922 97 84 82
1.7145 0.1762 1.3400 117 95 93
1.7190 0.1735 1.3867 144 119 117
1.7251 0.1723 1.4350 145 129 126
1.7289 0.1640 1.4887 156 143 139
1.7331 0.1649 1.5398 152 141 138
1.7347 0.1759 1.5928 160 149 145
1.7289 0.1526 1.6420 139 127 126
1.7400 0.1913 1.6864 93 84 81
1.7356 0.1731 1.7447 97 88 82
1.7469 0.1572 1.7908 99 94 90
1.7090 0.1738 1.8108 99 89 81
1.7027 0.1675 1.8877 82 77 70
1.7080 0.1573 1.9397 92 85 79
1.7087 0.1557 2.0368 76 74 72
1.7080 0.1595 2.0900 68 61 54
1.7102 0.1585 2.1446 73 64 59
1.7154 0.1655 2.2115 58 53 43
1.7283 0.2221 0.1938 94 82 79
1.7352 0.2213 0.2317 94 85 81
1.7209 0.2368 0.5742 64 62 61
1.7225 0.2256 0.6249 165 167 168
1.7198 0.2386 1.0426 182 173 173
1.7252 0.2181 1.0905 132 121 120
1.7209 0.2342 1.1435 117 107 104
1.7126 0.2406 1.1943 105 94 92
1.7088 0.2395 1.2451 103 93 91
1.7065 0.2352 1.2835 106 97 94
1.7066 0.2196 1.3417 125 111 108
1.7116 0.2172 1.3957 134 115 111
1.7229 0.2168 1.4415 98 86 82
1.7373 0.2162 1.4934 75 70 66
1.7455 0.2053 1.5447 74 68 67
1.7393 0.2265 1.6462 102 96 92
1.7477 0.2486 1.6877 96 89 83
1.7469 0.2386 1.7369 165 152 143
1.7286 0.2041 2.2330 74 67 55
1.7216 0.2423 2.2894 55 58 47
1.7476 0.2365 2.3282 57 70 66
1.7226 0.2715 0.1874 98 82 77
1.7473 0.2778 0.2148 58 61 53
1.7298 0.2853 1.1294 103 91 89
1.7277 0.2814 1.1888 120 111 109
1.7241 0.2761 1.2749 109 100 98
1.7211 0.2784 1.3401 107 95 92
1.7120 0.2736 1.3924 173 149 145
1.7161 0.2553 1.4488 173 151 146
1.7152 0.2542 1.4910 122 113 108
1.7273 0.2520 1.5412 87 83 76
1.7237 0.2757 1.5933 72 69 64
1.7346 0.2890 1.6704 82 76 68
1.7414 0.2935 1.7453 69 67 61
1.7285 0.2948 1.7912 81 78 74
1.7480 0.2872 1.8390 79 77 72
1.7207 0.3346 0.1797 107 96 92
1.7000 0.3472 0.2254 54 39 31
1.7462 0.3002 0.2651 82 75 62
1.7214 0.3421 1.1459 242 244 243
1.7248 0.3332 1.1980 209 211 213
1.7414 0.3172 1.2612 92 81 78
1.7310 0.3253 1.3055 111 102 98
1.7300 0.3191 1.3752 113 101 99
1.7175 0.3170 1.4469 103 93 91
1.7199 0.3204 1.5195 90 83 79
1.7175 0.3418 1.6466 227 194 182
1.7020 0.3058 1.7019 125 113 104
1.7349 0.3165 1.8106 58 54 49
1.7388 0.3183 1.8656 59 57 52
1.7354 0.3197 1.9097 65 63 57
1.7295 0.3185 1.9653 85 80 73
1.7162 0.3355 2.0255 73 69 62
1.7372 0.3407 2.0807 48 49 44
1.7152 0.3719 0.1798 100 82 78
1.7340 0.3611 1.1030 253 255 253
1.7445 0.3647 1.3162 158 133 126
1.7362 0.3790 1.3603 131 113 108
1.7359 0.3684 1.4082 142 132 128
1.7267 0.3623 1.4550 129 120 117
1.7236 0.3586 1.5220 124 116 112
1.7102 0.3798 1.5783 228 208 197
1.7087 0.3632 2.1122 90 87 78
1.7219 0.3704 2.1600 73 72 63
1.7113 0.3725 2.2214 64 61 52
1.7229 0.3593 2.2690 78 75 64
1.7074 0.3819 2.3215 79 77 64
1.7237 0.4237 0.1786 105 85 79
1.7410 0.4021 1.3782 195 162 155
1.7369 0.4218 1.4228 128 131 132
1.7422 0.4071 1.4598 140 132 126
1.7222 0.4080 1.5094 159 151 140
1.7405 0.4282 1.5601 212 193 182
1.7165 0.4244 1.6150 225 210 199
1.7139 0.4189 1.6689 179 160 155
1.7048 0.4314 1.7134 155 143 136
1.7008 0.4352 1.8160 174 155 146
1.7253 0.4482 1.8502 132 109 105
1.7263 0.4689 0.1729 113 91 86
1.7441 0.4668 1.6121 207 187 174
1.7346 0.4503 1.6602 215 192 181
1.7435 0.4673 1.7057 173 159 151
1.7370 0.4546 1.7589 164 150 141
1.7283 0.4545 1.8023 209 183 171
1.7284 0.4762 1.8589 166 138 127
1.7206 0.4817 1.9187 190 162 154
1.7023 0.4723 1.9690 147 135 129
1.7283 0.5046 0.1291 242 183 182
1.7283 0.5246 0.1657 136 110 105
1.7311 0.5291 1.9278 154 148 144
1.7080 0.5186 1.9686 132 125 121
1.7214 0.5336 2.0165 108 108 104
1.7253 0.5335 2.0664 126 117 109
1.7270 0.5775 0.1313 162 115 108
1.7189 0.5770 0.1587 146 111 104
1.7333 0.5565 2.0735 109 113 112
1.7236 0.5563 2.1213 124 120 113
1.7221 0.5673 2.1706 141 135 129
1.7016 0.5589 2.2275 152 135 125
1.7234 0.5972 2.2578 47 53 44
1.7124 0.5760 2.3142 121 110 102
1.7125 0.6450 0.0839 99 42 45
1.7338 0.6174 0.1346 163 120 121
1.7225 0.6222 0.1554 139 108 103
1.7490 0.6158 2.3212 67 73 64
1.7234 0.6800 0.1279 197 181 179
1.7229 0.6694 0.1532 142 129 125
1.7152 0.7433 0.0975 210 201 202
1.7218 0.7273 0.1328 180 181 180
1.7454 0.7788 0.0986 203 185 190
1.7182 0.7911 0.1165 246 246 243
1.7130 0.8314 0.0896 253 255 253
1.7165 0.8275 0.1261 203 204 203
1.7164 0.8775 0.1199 253 255 253
1.7207 0.9293 0.1245 203 182 178
1.7134 0.9971 0.0604 185 168 172
1.7265 0.9798 0.1280 149 123 121
1.7494 1.0349 0.0754 120 100 91
1.7175 1.0293 0.1007 105 86 84
1.7211 1.0356 0.1763 89 79 75
1.7342 1.0873 0.0894 73 61 58
1.7216 1.0747 0.1631 97 103 103
1.7243 1.0916 0.2036 137 143 142
1.7287 1.1288 0.1139 78 72 69
1.7245 1.1270 0.1776 151 156 161
1.7113 1.1822 0.0713 199 186 183
1.7209 1.1861 0.1204 194 191 192
1.7205 1.1866 0.1677 220 213 209
1.7149 1.1576 0.2016 199 196 195
1.7182 1.2244 -0.0150 167 153 149
1.7335 1.2208 0.0224 170 156 152
1.7342 1.2234 0.1348 186 185 190
1.7155 1.2179 0.1827 199 200 198
1.7220 1.2767 -0.0182 150 149 154
1.7116 1.2764 0.0946 253 253 253
1.7155 1.2869 0.1256 208 204 202
1.7186 1.2677 0.1544 195 197 194
1.7141 1.3325 -0.0218 170 173 184
1.7222 1.3249 0.0278 246 247 255
1.7208 1.3163 0.0764 254 254 255
1.7350 1.3369 0.1249 202 200 196
1.7061 1.3913 -0.0355 176 177 184
1.7150 1.4414 0.0386 209 211 208
1.7455 1.4056 0.0518 253 255 253
1.7064 1.4520 -0.0514 185 183 189
1.7258 1.4875 -0.0159 234 227 226
1.7080 1.4790 0.0444 177 179 176
1.7149 1.5050 -0.0549 242 235 237
1.7157 1.5353 0.0378 208 204 200
1.7169 1.5505 -0.0600 247 248 246
1.7158 1.6272 -0.0687 253 255 253
1.7124 1.6202 0.0177 232 220 215
1.7329 1.6962 -0.0724 253 255 253
1.7109 1.6879 -0.0151 227 217 209
1.7498 1.6529 0.0080 233 226 217
1.7110 1.7291 -0.0675 253 255 252
1.7201 1.7754 -0.0716 228 227 224
1.7126 1.8283 -0.1165 198 197 193
1.7191 1.8469 -0.0832 249 250 247
1.7124 1.9023 -0.0789 239 237 234
1.7154 1.9637 -0.1058 253 250 243
1.7081 1.9516 -0.0728 248 247 244
1.7254 2.0197 -0.1092 255 255 253
1.7146 2.0220 -0.0730 253 255 252
1.7119 2.0794 -0.1061 231 227 225
1.7441 2.1131 -0.1342 255 255 253
1.7243 2.1426 -0.0746 253 255 253
1.7120 2.1741 -0.1031 250 250 249
1.7480 2.2028 -0.1349 255 254 250
1.7075 2.2466 -0.0960 225 224 224
1.7099 2.2977 -0.0948 218 222 222
1.7042 2.3025 -0.1278 238 226 224
1.7113 2.3734 -0.0912 200 203 204
1.7093 2.4158 -0.1302 226 225 225
1.7080 2.5052 -0.1238 216 216 216
1.7148 2.5219 -0.0939 253 255 253
1.7276 2.5665 -0.1713 255 251 250
1.7063 2.5582 -0.1253 176 180 182
1.7053 2.6257 -0.1287 212 211 208
1.7190 2.6655 -0.1356 238 237 232
1.7050 2.7172 -0.1293 245 241 235
1.7236 2.7692 -0.1276 247 244 239
1.7330 2.8125 -0.1224 253 255 253
1.7245 2.8804 -0.1150 247 240 232
1.7180 2.9609 -0.1427 253 255 251
1.7063 3.0088 -0.1236 247 244 240
1.7033 3.0623 -0.1365 253 255 252
1.7132 3.1186 -0.1584 253 255 251
1.7242 3.1167 -0.1318 253 254 250
1.7219 3.1840 -0.1535 253 255 253
1.7159 3.1534 -0.1214 253 255 253
1.7461 3.2580 -0.1562 254 254 249
1.7139 3.2719 -0.1376 253 255 253
1.7045 3.3055 -0.1638 254 253 250
1.7312 3.3299 -0.1235 251 253 253
1.7388 3.3971 -0.1779 241 237 231
1.7237 3.4665 -0.1643 232 235 234
1.7054 3.5063 -0.1731 237 238 236
1.7029 3.5744 -0.1589 253 255 253
1.7068 3.5939 -0.1459 253 255 253
1.7447 3.6016 -0.2047 213 206 206
1.7313 3.6131 -0.1442 253 255 253
1.7196 3.6513 -0.2301 239 242 241
1.7033 3.6631 -0.1665 226 231 231
1.7074 3.7041 -0.1700 254 255 253
1.7471 3.7689 -0.2177 183 193 199
1.7334 3.7976 -0.1536 253 255 253
1.7113 3.8265 -0.1722 236 240 239
1.7461 3.8952 -0.2561 223 220 221
1.7087 3.8595 -0.1668 242 246 245
1.7212 3.8565 -0.1314 253 255 253
1.7471 3.9234 -0.1950 255 255 253
1.7170 3.9932 -0.1670 255 255 253
1.7411 4.0462 -0.1746 255 255 253
1.7262 4.1445 -0.1899 255 255 253
1.7346 4.3129 -0.1945 239 237 235
1.7404 4.6506 -0.3039 244 248 247
1.7007 4.6617 -0.2978 247 252 250
1.7117 4.6828 -0.2464 213 219 222
1.7293 4.7491 -0.2518 233 225 230
1.7085 4.7419 -0.2116 150 168 173
1.7790 -4.7061 -0.1489 117 136 146
1.7680 -4.6978 -0.0700 144 147 143
1.7793 -4.4756 0.0313 142 143 136
1.7773 -4.4483 -0.1358 100 122 131
1.7591 -4.3887 0.0329 125 128 125
1.7991 -4.3462 -0.1105 107 126 135
1.7766 -4.1700 -0.0864 138 151 158
1.7985 -4.1205 0.0534 203 195 187
1.7815 -4.0631 0.0468 155 154 150
1.7759 -3.9651 0.0222 113 123 124
1.7773 -3.9125 0.0027 117 126 125
1.7667 -3.8919 -0.0644 105 119 131
1.7609 -3.8561 -0.0035 119 131 129
1.7760 -3.8002 -0.0626 94 112 124
1.7502 -3.7817 -0.0043 115 124 123
1.7977 -3.7051 0.0397 121 133 131
1.7657 -3.6904 -0.0352 101 112 117
1.7703 -3.6692 0.0310 125 135 132
1.7551 -3.6185 -0.0388 96 115 125
1.7768 -3.5587 -0.0001 89 103 105
1.7663 -3.5293 -0.0616 123 138 144
1.7520 -3.5131 -0.0168 102 118 122
1.7797 -3.4599 -0.0889 139 149 154
1.7737 -3.3964 -0.1170 118 132 140
1.7630 -3.3687 -0.0313 115 127 135
1.7870 -3.3093 0.0112 99 110 113
1.7761 -3.2392 -0.1039 116 119 127
1.7891 -3.2409 -0.0389 125 136 140
1.7768 -3.2445 0.0101 125 129 130
1.7649 -3.1810 -0.0961 107 119 126
1.7668 -3.1802 0.0092 130 133 130
1.7864 -3.1456 -0.0525 112 123 126
1.7764 -3.1267 0.0180 120 125 125
1.7502 -3.0529 -0.0627 119 128 134
1.7766 -3.0661 0.0075 112 119 119
1.7665 -3.0132 -0.0099 103 112 111
1.7572 -2.9311 -0.0658 170 173 176
1.7741 -2.9316 -0.0240 173 166 169
1.7773 -2.8879 -0.0370 179 179 181
1.7773 -2.8890 0.0120 104 113 113
1.7508 -2.8274 -0.0719 138 148 152
1.7777 -2.8196 -0.0455 168 160 166
1.7906 -2.8059 0.0138 153 144 143
1.7606 -2.7868 -0.0581 136 143 149
1.7817 -2.7292 -0.0345 143 142 149
1.7856 -2.7364 0.0172 174 160 151
1.7617 -2.6724 -0.0538 121 129 138
1.7556 -2.6708 -0.0075 170 158 149
1.7761 -2.6802 0.0162 168 148 146
1.7835 -2.6381 -0.0044 147 140 138
1.7758 -2.6014 0.0238 162 144 141
1.7602 -2.5719 -0.0132 130 134 138
1.7535 -2.5050 -0.0418 106 122 128
1.7757 -2.5237 0.0142 141 138 137
1.7758 -2.4551 -0.0354 165 158 165
1.7620 -2.4821 0.0260 140 139 132
1.7916 -2.4309 -0.0483 214 193 197
1.7824 -2.4287 0.0041 142 133 132
1.7934 -2.3732 -0.0307 193 186 189
1.7837 -2.3669 0.0036 167 153 149
1.7674 -2.3177 -0.0277 216 191 187
1.7801 -2.2652 -0.0117 237 206 190
1.7590 -2.2975 0.0187 182 167 161
1.7751 -2.2143 -0.0288 215 188 181
1.7721 -2.1766 -0.0291 205 182 173
1.7797 -2.1222 -0.0179 198 175 168
1.7625 -2.0747 -0.0311 141 133 138
1.7756 -2.0181 -0.0034 152 144 140
1.7543 -2.0419 0.0229 217 185 175
1.7704 -1.9588 0.0052 149 138 137
1.7689 -1.9135 -0.0073 131 130 130
1.7543 -1.8744 -0.0376 103 116 123
1.7678 -1.8727 0.0009 135 133 131
1.7678 -1.8216 -0.0151 90 104 109
1.7506 -1.7857 -0.0204 96 111 115
1.7742 -1.7702 0.0079 116 119 117
1.7720 -1.7207 0.0140 102 111 115
1.7793 -1.6760 0.0244 117 120 120
1.7773 -1.6283 0.0268 136 137 142
1.7691 -1.5674 0.0402 122 131 134
1.7826 -1.5767 0.0721 154 142 136
1.7662 -1.5234 0.0732 135 140 141
1.7999 -1.4906 0.0413 203 194 195
1.7857 -1.4846 0.0653 194 189 191
1.7930 -1.4654 0.1225 194 194 194
1.7724 -1.4183 0.1427 129 126 125
1.7645 -1.3965 0.1042 195 197 199
1.7771 -1.3697 0.1574 165 153 148
1.7773 -1.3253 0.1259 137 138 141
1.7662 -1.2905 0.1520 133 139 140
1.7684 -1.2059 0.1289 75 92 95
1.7815 -1.2256 0.1841 98 114 118
1.7792 -1.1866 0.1718 99 113 115
1.7779 -1.1752 0.2036 114 121 121
1.7785 -1.1399 0.1702 85 94 95
1.7816 -1.1327 0.2057 98 109 111
1.7687 -1.0793 0.1343 75 74 72
1.7883 -1.0727 0.1700 83 81 77
1.7751 -1.0819 0.2131 96 109 111
1.7690 -1.0233 0.1301 83 73 68
1.7790 -1.0196 0.1743 71 76 72
1.7735 -1.0351 0.2161 109 119 119
1.7725 -0.9782 0.1409 102 89 84
1.7772 -0.9793 0.1698 115 101 98
1.7750 -0.9246 0.1365 116 99 92
1.7668 -0.9337 0.1625 141 106 101
1.7674 -0.8719 0.1266 193 149 139
1.7744 -0.8255 0.1414 145 122 114
1.7743 -0.7767 0.1279 147 117 109
1.7706 -0.7276 0.1301 188 160 156
1.7798 -0.6786 0.1318 137 113 109
1.7759 -0.6221 0.1337 146 129 123
1.7790 -0.5788 0.1385 153 131 126
1.7703 -0.5226 0.1356 124 99 94
1.7784 -0.5210 0.1511 127 104 97
1.7648 -0.4707 0.1411 104 87 84
1.7873 -0.4758 0.1530 83 71 67
1.7755 -0.4260 0.1453 74 68 65
1.7798 -0.4254 0.1563 71 62 58
1.7703 -0.3731 0.1478 79 73 69
1.7838 -0.3735 0.1658 70 68 65
1.7975 -0.3919 1.8454 45 39 27
1.7807 -0.3941 1.9074 31 31 17
1.7734 -0.3234 0.1589 72 69 65
1.7766 -0.2794 0.1691 65 64 60
1.7692 -0.2314 0.1798 63 64 59
1.7953 -0.2104 0.2371 111 94 89
1.7860 -0.1707 0.2147 68 35 30
1.7797 -0.1661 0.2542 165 133 131
1.7761 -0.1611 0.3364 141 112 106
1.7790 -0.1245 0.2277 104 86 83
1.7865 -0.1241 0.2512 89 77 73
1.7533 -0.1204 0.4035 110 88 84
1.7631 -0.1382 0.4507 90 71 72
1.7612 -0.0953 0.2238 104 90 87
1.7719 -0.0676 0.2689 62 54 51
1.7832 -0.0724 0.3221 95 84 81
1.7902 -0.0956 0.4701 155 139 138
1.7898 -0.0671 1.5165 67 63 60
1.7588 -0.0518 1.9340 71 87 111
1.7712 -0.0314 0.3662 101 93 91
1.7833 -0.0243 0.4126 108 101 100
1.7888 -0.0240 0.4666 158 137 137
1.7723 -0.0045 0.5093 168 148 148
1.7512 -0.0138 0.5651 124 110 107
1.7769 -0.0019 1.0883 128 128 98
1.7773 -0.0083 1.4082 107 102 99
1.7797 -0.0210 1.4860 85 80 75
1.7945 -0.0401 1.5172 46 43 39
1.7673 -0.0366 1.5801 54 52 43
1.7904 -0.0062 1.7534 47 46 35
1.7743 -0.0259 1.8299 129 141 162
1.7749 -0.0229 1.8807 98 94 83
1.7834 -0.0016 1.9636 50 56 48
1.7552 0.0285 0.2331 83 79 79
1.7651 0.0381 0.2587 82 79 80
1.7579 0.0296 0.3142 100 97 95
1.7764 0.0359 0.5244 177 161 160
1.7722 0.0427 0.5655 174 158 158
1.7998 0.0329 0.6144 175 164 165
1.7565 0.0465 0.6621 181 170 169
1.7723 0.0402 0.7175 231 215 216
1.7761 0.0383 0.7840 133 122 120
1.7728 0.0463 1.0344 131 116 116
1.7807 0.0425 1.0685 148 140 138
1.7796 0.0313 1.1062 156 146 149
1.7840 0.0380 1.1759 182 165 166
1.7865 0.0241 1.2230 127 119 119
1.7906 0.0402 1.2684 144 130 130
1.7910 0.0395 1.3238 105 100 97
1.7842 0.0307 1.3721 102 98 94
1.7836 0.0227 1.4199 101 96 92
1.7831 0.0346 1.4711 86 81 76
1.7862 0.0301 1.5213 69 63 55
1.7856 0.0274 1.5736 63 57 47
1.7909 0.0285 1.6149 53 49 40
1.7885 0.0249 1.6696 52 48 38
1.7914 0.0072 1.7279 49 49 45
1.7785 0.0296 1.8336 43 46 45
1.7668 0.0262 1.8704 78 76 78
1.7577 0.0205 1.9269 45 49 47
1.7536 0.0282 1.9763 56 62 49
1.7642 0.0879 0.1977 64 56 55
1.7700 0.0690 0.2232 74 71 70
1.7725 0.0601 0.2691 88 89 89
1.7772 0.0654 0.3208 103 102 102
1.7822 0.0820 0.3712 132 126 125
1.7786 0.0843 0.4207 150 143 142
1.7798 0.0792 0.4707 166 152 148
1.7688 0.0909 0.5229 191 179 176
1.7682 0.0883 0.5768 182 172 170
1.7705 0.0851 0.6246 171 156 158
1.7723 0.0838 0.6723 171 161 162
1.7752 0.0756 0.7156 221 208 208
1.7548 0.0542 0.7775 171 169 171
1.7697 0.0633 0.8252 192 180 183
1.7776 0.0773 0.8712 107 88 90
1.7787 0.0632 0.9658 193 174 178
1.7720 0.0998 1.0766 119 109 108
1.7726 0.0925 1.1319 108 99 100
1.7776 0.0939 1.1820 101 94 95
1.7758 0.0845 1.2258 134 125 123
1.7838 0.0699 1.2674 116 109 107
1.7712 0.0667 1.3253 105 100 96
1.7611 0.0627 1.3654 107 101 96
1.7714 0.0515 1.4245 99 93 87
1.7507 0.0568 1.7180 64 68 64
1.7730 0.0727 1.7825 58 58 51
1.7950 0.0698 1.9693 33 39 29
1.7725 0.1276 0.2228 76 78 78
1.7884 0.1324 0.2732 107 108 108
1.7904 0.1284 0.3266 122 117 116
1.7970 0.1468 0.3852 158 143 142
1.7915 0.1327 0.4795 119 114 116
1.7929 0.1314 0.5315 157 155 156
1.7766 0.1290 0.5753 154 138 137
1.7967 0.1366 0.6278 151 144 145
1.7759 0.1292 0.6788 174 164 162
1.7770 0.1246 0.7275 173 156 156
1.7765 0.1214 0.7783 173 160 160
1.7769 0.1199 0.8325 180 165 165
1.7770 0.1184 0.8776 192 179 179
1.7748 0.1275 0.9236 137 122 121
1.7790 0.1254 0.9801 142 122 121
1.7719 0.1075 1.0297 140 125 125
1.7650 0.1457 1.0831 126 112 110
1.7611 0.1386 1.1288 117 106 104
1.7642 0.1349 1.1766 78 71 68
1.7615 0.1226 1.2229 82 73 70
1.7609 0.1170 1.2635 96 89 86
1.7968 0.1198 1.9751 38 40 30
1.7662 0.1722 0.2247 112 103 99
1.7908 0.1641 0.2751 133 123 118
1.7933 0.1663 0.6008 148 139 142
1.7517 0.1602 0.6834 118 120 122
1.7796 0.1689 0.7797 166 151 152
1.7748 0.1661 0.8280 175 164 163
1.7746 0.1602 0.8806 162 148 149
1.7636 0.1599 0.9341 156 139 139
1.7631 0.1556 0.9830 146 130 129
1.7631 0.1510 1.0304 139 120 119
1.7615 0.1763 1.5937 56 54 53
1.7821 0.1921 1.7437 104 88 84
1.7681 0.1763 1.7815 146 137 136
1.7658 0.1783 1.8401 107 94 90
1.7553 0.1729 1.8924 77 68 62
1.7732 0.1822 1.9234 79 67 63
1.7520 0.1674 1.9888 65 61 59
1.7627 0.1833 2.0399 81 81 83
1.7714 0.1888 2.0975 103 94 94
1.7653 0.1832 2.1433 105 90 88
1.7590 0.1733 2.1786 67 63 54
1.7603 0.2360 0.1986 104 86 83
1.7774 0.2203 0.2268 90 82 79
1.7832 0.2231 0.2723 122 115 115
1.7688 0.2098 0.7912 180 162 158
1.7856 0.2254 0.8485 170 161 161
1.7770 0.2190 0.8882 169 159 159
1.7758 0.2206 0.9406 152 141 141
1.7707 0.2208 0.9839 148 135 135
1.7581 0.2197 1.0362 153 138 137
1.7604 0.2441 1.0867 129 118 116
1.7541 0.2475 1.1796 110 103 101
1.7663 0.2269 1.6439 145 129 124
1.7669 0.2253 1.6731 126 124 125
1.7839 0.2202 1.7265 118 98 94
1.7851 0.2390 1.7982 143 125 120
1.7745 0.2232 1.8572 75 64 57
1.7877 0.2240 1.9235 87 75 71
1.7739 0.2009 1.9894 97 121 143
1.7975 0.2122 2.1416 91 72 66
1.7758 0.2228 2.1830 74 67 60
1.7680 0.2409 2.2549 98 90 80
1.7794 0.2682 0.2248 87 74 71
1.7770 0.2652 0.2844 115 103 93
1.7588 0.2923 1.0979 109 98 96
1.7756 0.2684 1.1338 114 106 104
1.7665 0.2905 1.1953 116 105 104
1.7641 0.2887 1.2426 121 113 112
1.7602 0.2849 1.2828 125 114 113
1.7580 0.2547 1.7910 121 105 99
1.7759 0.2644 1.8475 91 86 81
1.7701 0.2738 1.8919 78 74 68
1.7704 0.2672 1.9357 89 76 68
1.7613 0.2746 1.9960 82 72 66
1.7821 0.2677 2.0336 62 58 53
1.7850 0.2959 2.1135 76 71 61
1.7769 0.2519 2.2934 61 61 56
1.7857 0.2759 2.3257 114 110 105
1.7980 0.2578 2.3575 37 59 77
1.7739 0.3251 0.1984 82 73 67
1.7727 0.3111 0.2254 95 77 72
1.7767 0.3455 0.3022 146 142 141
1.7742 0.3255 1.0552 98 86 83
1.7721 0.3417 1.1306 145 138 135
1.7768 0.3352 1.1942 109 99 98
1.7833 0.3315 1.2491 165 142 140
1.7759 0.3306 1.2962 134 120 119
1.7652 0.3312 1.3459 134 120 119
1.7535 0.3448 1.3823 118 109 110
1.7520 0.3060 2.0435 78 73 65
1.7620 0.3111 2.1046 83 76 68
1.7636 0.3316 2.1770 78 71 62
1.7708 0.3242 2.2241 78 69 63
1.7867 0.3110 2.2671 60 58 47
1.7785 0.3462 2.3163 77 76 65
1.7718 0.3871 0.1801 112 84 79
1.7743 0.3545 0.2263 54 39 35
1.7690 0.3864 1.1122 223 218 215
1.7846 0.3864 1.1751 255 255 252
1.7873 0.3716 1.2571 160 137 133
1.7786 0.3729 1.3127 179 155 150
1.7709 0.3801 1.3720 165 148 144
1.7622 0.3867 1.4409 140 133 131
1.7694 0.3534 2.3409 78 77 64
1.7705 0.3618 2.3735 82 79 65
1.7684 0.4310 0.1799 90 69 65
1.7885 0.4361 1.1570 138 129 129
1.7925 0.4179 1.3101 167 164 160
1.7841 0.4146 1.3650 141 130 123
1.7794 0.4160 1.4048 136 125 119
1.7878 0.4366 1.4576 133 123 118
1.7651 0.4220 1.5253 171 152 145
1.7733 0.4761 0.1757 104 75 72
1.7778 0.4595 1.1291 90 83 86
1.7919 0.4563 1.5124 154 137 130
1.7832 0.4725 1.5643 168 149 139
1.7857 0.4778 1.6106 152 133 123
1.7758 0.4782 1.6587 128 113 105
1.7896 0.4911 1.7121 113 107 101
1.7730 0.4926 1.7604 137 128 121
1.7753 0.4918 1.8078 158 144 136
1.7987 0.4882 1.8560 82 80 76
1.7784 0.5251 0.1614 115 89 84
1.7912 0.5308 1.7280 88 95 106
1.7745 0.5273 1.7741 134 131 138
1.7739 0.5200 1.8195 122 120 122
1.7679 0.5271 1.8737 136 128 120
1.7510 0.5333 1.9686 137 130 123
1.7696 0.5749 0.1588 119 90 85
1.7983 0.5595 1.9102 52 52 46
1.7830 0.5596 1.9832 98 96 88
1.7567 0.5586 2.0210 120 133 134
1.7562 0.5723 2.1357 112 113 105
1.7599 0.6370 0.1319 165 137 133
1.7733 0.6250 0.1516 134 106 101
1.7691 0.6824 0.1316 164 150 148
1.7805 0.6729 0.1566 147 138 131
1.7744 0.7298 0.1275 166 170 170
1.7595 0.7258 0.1509 158 175 172
1.7752 0.7803 0.1245 184 198 200
1.7814 0.7596 0.1546 137 156 154
1.7638 0.8369 0.0932 253 255 253
1.7680 0.8305 0.1298 170 178 180
1.7832 0.8156 0.1587 140 155 157
1.7721 0.8847 0.1208 189 175 177
1.7722 0.8854 0.1642 122 109 118
1.7713 0.9361 0.1250 161 149 140
1.7684 0.9833 0.1216 137 123 119
1.7777 1.0365 0.1083 109 89 83
1.7794 1.0286 0.1713 78 72 70
1.7662 1.0876 0.1108 78 71 69
1.7749 1.0761 0.1772 92 98 100
1.7693 1.1339 0.1003 75 67 64
1.7713 1.1256 0.1824 143 151 158
1.7721 1.1860 0.0246 201 186 182
1.7645 1.1855 0.0711 199 189 182
1.7639 1.1779 0.1269 199 196 196
1.7753 1.1797 0.1796 203 198 199
1.7628 1.1647 0.2039 202 201 198
1.7623 1.2213 -0.0142 205 189 182
1.7904 1.2343 0.0693 166 156 170
1.7683 1.2294 0.1269 210 211 218
1.7737 1.2224 0.1756 192 193 192
1.7613 1.2941 -0.0221 203 191 192
1.7861 1.2960 0.0346 187 186 192
1.7825 1.2704 0.1319 209 209 206
1.7517 1.2565 0.1621 200 201 198
1.7629 1.3396 -0.0397 225 225 227
1.7621 1.3307 0.0855 254 255 252
1.7537 1.3318 0.1276 202 198 196
1.7814 1.3892 -0.0401 168 176 187
1.7919 1.3694 0.0541 253 253 251
1.7590 1.4438 -0.0519 208 206 213
1.7581 1.4049 -0.0472 172 176 184
1.7555 1.4126 0.0922 211 209 208
1.7593 1.4886 -0.0583 242 239 240
1.7726 1.4692 -0.0306 222 215 218
1.7539 1.4865 0.0392 200 200 197
1.7753 1.4634 0.0733 212 206 201
1.7622 1.5454 -0.0678 251 253 251
1.7665 1.5291 -0.0306 233 227 227
1.7713 1.5390 0.0428 232 225 218
1.7748 1.5927 -0.0823 254 255 253
1.7525 1.5661 0.0411 239 233 224
1.7703 1.6310 -0.0881 253 255 253
1.7578 1.6015 -0.0460 244 244 242
1.7663 1.6703 -0.0570 223 221 218
1.7571 1.7285 -0.0556 234 230 225
1.7601 1.7643 -0.0714 253 255 252
1.7641 1.8247 -0.0866 250 250 247
1.7666 1.8710 -0.1152 253 255 253
1.7542 1.9465 -0.1138 255 255 252
1.7626 1.9055 -0.0815 248 247 243
1.7630 1.9780 -0.0820 252 249 246
1.7622 2.0498 -0.1033 250 248 245
1.7974 2.0954 -0.1111 220 216 215
1.7554 2.0693 -0.0734 253 255 253
1.7848 2.1491 -0.1370 255 255 253
1.7625 2.1075 -0.0986 215 211 212
1.7611 2.1609 -0.0997 186 188 190
1.7504 2.2189 -0.1007 185 187 189
1.7563 2.2450 -0.0970 225 222 222
1.7766 2.2641 -0.1619 255 254 249
1.7811 2.2946 -0.1302 232 214 209
1.7647 2.2996 -0.0995 214 213 212
1.7791 2.3322 -0.0976 253 255 252
1.7515 2.3508 -0.1478 193 175 176
1.7568 2.4275 -0.1270 212 213 212
1.7699 2.4266 -0.0729 253 255 253
1.7583 2.5167 -0.1216 195 201 202
1.7886 2.5954 -0.1570 181 171 165
1.7781 2.5564 -0.1204 224 223 222
1.7518 2.6024 -0.1547 184 179 180
1.7586 2.6090 -0.1105 233 234 232
1.7964 2.6614 -0.1511 252 252 246
1.7663 2.6569 -0.1180 250 249 245
1.7746 2.7058 -0.1536 253 254 245
1.7575 2.7027 -0.1119 249 246 242
1.7632 2.7761 -0.1111 248 244 238
1.7599 2.8548 -0.1275 251 247 240
1.7522 2.9126 -0.1263 253 254 249
1.7815 2.9632 -0.1355 252 250 246
1.7601 3.0109 -0.1308 252 250 246
1.7530 3.0602 -0.1379 253 250 244
1.7519 3.1136 -0.1571 254 254 249
1.7913 3.1154 -0.1436 248 245 239
1.7608 3.1768 -0.1641 253 255 253
1.7764 3.2248 -0.1660 255 255 253
1.7661 3.2057 -0.1341 252 253 249
1.7986 3.2698 -0.1597 254 255 253
1.7666 3.2569 -0.1183 250 253 250
1.7727 3.3191 -0.1608 253 254 251
1.7968 3.3645 -0.1571 235 231 229
1.7661 3.3684 -0.1144 253 255 253
1.7706 3.4088 -0.1650 247 246 243
1.7603 3.4530 -0.1505 255 255 251
1.7544 3.4912 -0.1432 253 255 253
1.7703 3.5143 -0.1695 255 255 251
1.7654 3.5426 -0.1338 253 255 253
1.7550 3.5572 -0.1889 245 246 242
1.7658 3.6725 -0.1575 253 255 253
1.7588 3.7384 -0.1755 255 255 253
1.7777 3.7608 -0.1706 253 255 253
1.7890 3.8173 -0.2393 193 201 207
1.7650 3.8347 -0.1923 209 218 219
1.7546 3.8980 -0.1807 255 255 253
1.7939 3.9759 -0.1874 255 255 253
1.7654 4.0994 -0.1822 255 255 253
1.7587 4.2000 -0.1993 255 255 253
1.7916 4.2558 -0.2087 255 255 253
1.7771 4.3104 -0.1834 219 212 212
1.7967 4.3858 -0.1976 248 243 244
1.7770 4.6146 -0.3027 225 230 228
1.7843 4.6025 -0.2471 173 191 194
1.7511 4.6631 -0.2552 180 195 199
1.7651 4.7003 -0.2133 166 185 193
1.7728 4.8295 -0.2611 208 203 207
1.8144 -4.6701 -0.1409 114 131 139
1.8497 -4.6341 -0.1329 112 129 137
1.8302 -4.6058 0.0391 139 148 148
1.8046 -4.5405 0.0352 135 141 137
1.8386 -4.3633 0.0196 141 144 140
1.8498 -4.2952 -0.0992 113 129 136
1.8061 -4.2485 0.0194 175 174 165
1.8443 -4.1418 0.0279 132 134 136
1.8327 -4.0641 0.0268 115 122 122
1.8159 -4.0070 0.0204 124 133 134
1.8197 -3.9685 -0.0843 101 120 129
1.8303 -3.8753 0.0313 115 129 129
1.8069 -3.7687 -0.0556 93 112 121
1.8117 -3.7985 0.0331 120 131 132
1.8273 -3.7260 -0.0172 104 117 122
1.8284 -3.6572 -0.0531 99 115 123
1.8235 -3.6296 0.0123 104 117 119
1.8044 -3.5715 -0.0470 96 111 117
1.8346 -3.5604 0.0204 101 115 115
1.8210 -3.5206 -0.0361 108 121 125
1.8304 -3.4722 -0.0312 103 116 120
1.8158 -3.4214 -0.0794 132 140 146
1.8090 -3.4178 -0.0483 114 125 130
1.8287 -3.3657 -0.1082 105 120 129
1.8124 -3.3774 0.0221 100 113 116
1.8250 -3.2111 -0.0905 119 124 131
1.8348 -3.2124 -0.0338 107 120 124
1.8018 -3.1720 -0.0939 110 118 122
1.8439 -3.1868 0.0040 126 129 129
1.8366 -3.1382 -0.0543 99 116 122
1.8201 -3.1393 -0.0005 115 120 121
1.8195 -3.0591 -0.0707 153 155 159
1.8164 -3.0831 0.0043 112 119 114
1.8291 -3.0201 -0.0379 147 146 148
1.8163 -2.9829 -0.0221 116 116 118
1.8261 -2.9529 0.0275 103 112 111
1.8232 -2.9281 -0.0713 187 187 187
1.8017 -2.9210 0.0197 101 110 109
1.8299 -2.8606 -0.0192 166 166 168
1.8278 -2.8270 -0.0250 178 164 162
1.8395 -2.7458 -0.0647 161 151 157
1.8199 -2.7205 -0.0288 165 156 160
1.8166 -2.6640 0.0039 176 163 160
1.8142 -2.6117 -0.0507 137 137 145
1.8489 -2.6081 0.0294 178 161 153
1.8344 -2.5617 0.0118 151 136 130
1.8233 -2.5094 0.0118 132 121 118
1.8111 -2.4861 -0.0423 128 131 140
1.8123 -2.4705 0.0182 115 109 105
1.8266 -2.4241 -0.0253 187 171 172
1.8074 -2.4421 0.0189 124 115 112
1.8472 -2.3949 -0.0327 233 215 212
1.8383 -2.3757 0.0046 176 156 145
1.8249 -2.3108 -0.0313 227 199 192
1.8174 -2.2677 -0.0271 222 198 192
1.8322 -2.2717 0.0008 208 185 180
1.8079 -2.2244 -0.0244 211 192 183
1.8297 -2.1209 -0.0190 184 167 164
1.8059 -2.0656 -0.0104 183 163 157
1.8350 -2.0208 -0.0179 126 126 131
1.8095 -2.0182 0.0234 218 186 174
1.8301 -1.9803 0.0127 134 130 132
1.8067 -1.9135 0.0169 135 133 135
1.8238 -1.8699 0.0124 148 139 137
1.8140 -1.8207 0.0157 147 137 130
1.8241 -1.7694 0.0083 109 112 110
1.8438 -1.7061 -0.0186 142 144 145
1.8229 -1.7087 0.0160 134 132 134
1.8100 -1.7073 0.0589 139 131 127
1.8498 -1.6783 -0.0124 164 159 163
1.8272 -1.6784 0.0194 142 142 142
1.8363 -1.6277 -0.0040 150 149 152
1.8074 -1.6255 0.0069 172 166 173
1.8040 -1.5676 0.0222 191 184 187
1.8321 -1.5724 0.0853 127 121 117
1.8052 -1.5338 0.0255 195 187 190
1.8021 -1.5074 0.0744 98 110 119
1.8034 -1.5247 0.1121 127 116 111
1.8201 -1.4063 0.0275 193 183 185
1.8203 -1.4373 0.0805 200 194 192
1.8202 -1.3845 0.0205 204 195 196
1.8382 -1.3800 0.0990 128 128 132
1.8290 -1.3838 0.1441 122 127 127
1.8046 -1.3212 0.0702 152 147 153
1.8231 -1.3253 0.1147 121 129 131
1.8294 -1.3158 0.1655 105 116 118
1.8204 -1.2812 0.0866 86 91 93
1.8245 -1.2834 0.1544 102 110 114
1.8450 -1.2442 0.1005 117 127 135
1.8460 -1.2240 0.1748 90 104 109
1.8240 -1.1911 0.1664 91 105 108
1.8291 -1.1817 0.2020 101 112 114
1.8276 -1.1258 0.1715 72 78 77
1.8338 -1.1339 0.2093 94 105 105
1.8197 -1.0698 0.1325 62 63 60
1.8278 -1.0734 0.1672 73 76 72
1.8292 -1.0883 0.2178 93 105 107
1.8187 -1.0210 0.1365 88 82 76
1.8249 -1.0261 0.1753 82 83 77
1.8226 -1.0398 0.2160 86 96 97
1.8297 -0.9731 0.1411 80 74 67
1.8163 -0.9892 0.1666 97 94 92
1.8278 -0.9199 0.1401 112 99 92
1.8139 -0.8598 0.1261 143 108 105
1.8247 -0.8259 0.1404 132 110 103
1.8260 -0.7745 0.1283 83 74 67
1.8226 -0.7265 0.1279 122 111 108
1.8231 -0.6715 0.1342 95 90 88
1.8292 -0.6210 0.1386 125 116 112
1.8114 -0.5743 0.1298 110 100 97
1.8239 -0.5735 0.1522 83 77 73
1.8176 -0.5168 0.1327 103 90 89
1.8207 -0.5256 0.1587 69 63 59
1.8147 -0.4691 0.1398 77 71 69
1.8295 -0.4759 0.1626 67 63 60
1.8129 -0.4169 0.1471 64 63 61
1.8329 -0.4259 0.1640 69 69 65
1.8130 -0.3754 0.1487 69 71 70
1.8253 -0.3780 0.1655 74 75 71
1.8292 -0.3525 1.8375 54 51 40
1.8165 -0.3375 0.1645 77 78 73
1.8004 -0.3284 1.6639 65 59 54
1.8275 -0.2787 0.1908 99 93 87
1.8331 -0.2752 0.2257 188 176 148
1.8427 -0.2995 1.6564 79 77 67
1.8290 -0.2298 0.2181 145 122 116
1.8214 -0.1728 0.2192 121 89 86
1.8367 -0.1700 0.2514 108 87 81
1.8319 -0.1200 0.2411 91 77 75
1.8310 -0.1314 0.2770 72 63 63
1.8422 -0.1375 0.3620 75 62 58
1.8168 -0.0949 0.2640 76 68 67
1.8218 -0.0763 0.3062 69 60 59
1.8342 -0.0755 0.3528 109 95 95
1.8348 -0.0696 0.4050 143 124 125
1.8390 -0.0691 0.4593 164 137 140
1.8448 -0.0705 0.5094 137 119 125
1.8483 -0.0579 0.5589 115 101 100
1.8465 -0.0513 0.6120 121 108 110
1.8408 -0.0553 1.5406 58 61 57
1.8235 -0.0707 1.8764 122 133 124
1.8021 -0.0699 1.9219 112 122 123
1.8311 -0.0686 1.9595 52 65 50
1.8301 -0.0200 0.4594 108 97 94
1.8168 -0.0346 0.5179 184 166 168
1.8162 -0.0221 0.5637 211 196 197
1.8243 -0.0154 0.6100 146 134 135
1.8260 -0.0175 0.6610 139 124 126
1.8281 -0.0157 0.7127 173 160 162
1.8123 -0.0191 0.7659 132 123 124
1.8212 -0.0321 0.8131 166 153 154
1.8166 -0.0307 0.8751 254 253 250
1.8239 -0.0270 0.9174 158 146 146
1.8259 -0.0369 0.9683 128 118 117
1.8314 -0.0112 1.0177 137 132 132
1.8347 -0.0187 1.0649 120 114 112
1.8233 -0.0232 1.1112 162 152 151
1.8258 -0.0283 1.1597 187 168 174
1.8266 -0.0085 1.2161 158 146 145
1.8290 -0.0050 1.2612 144 133 132
1.8363 -0.0104 1.3117 112 109 108
1.8339 -0.0204 1.3723 96 92 93
1.8392 -0.0176 1.4073 79 74 73
1.8383 -0.0169 1.4551 76 74 71
1.8386 -0.0396 1.6377 111 116 84
1.8367 -0.0358 1.8746 107 110 113
1.8143 -0.0175 1.9287 64 74 48
1.8266 -0.0283 1.9575 64 75 51
1.8205 0.0246 0.5673 233 231 229
1.8242 0.0387 0.6189 182 181 181
1.8176 0.0300 0.6659 166 156 158
1.8226 0.0297 0.7170 169 158 159
1.8262 0.0234 0.7665 158 145 147
1.8238 0.0156 0.8163 170 156 157
1.8324 0.0262 0.8697 175 160 160
1.8353 0.0210 0.9204 157 147 147
1.8301 0.0055 0.9659 167 150 152
1.8450 0.0451 1.0146 159 145 147
1.8340 0.0355 1.0750 143 134 135
1.8173 0.0428 1.1212 152 145 145
1.8096 0.0390 1.1732 171 161 161
1.8071 0.0329 1.2256 181 166 165
1.8135 0.0277 1.2717 143 131 130
1.8194 0.0215 1.3238 100 95 91
1.8196 0.0141 1.3682 97 93 89
1.8281 0.0202 1.4169 83 79 74
1.8294 0.0180 1.4653 73 71 64
1.8352 0.0308 1.5217 53 51 43
1.8329 0.0261 1.5633 52 48 38
1.8357 0.0259 1.6208 87 89 87
1.8452 0.0269 1.6661 81 80 65
1.8233 0.0293 1.7162 79 84 77
1.8223 0.0291 1.7649 101 98 77
1.8298 0.0235 1.8090 144 152 139
1.8234 0.0437 1.8644 125 124 115
1.8047 0.0153 1.9156 103 112 95
1.8045 0.0816 0.2715 80 87 89
1.8274 0.0734 0.6701 110 104 101
1.8390 0.0660 0.7110 79 72 73
1.8173 0.0702 0.7704 135 124 125
1.8194 0.0623 0.8166 134 117 119
1.8098 0.0654 0.8685 147 131 131
1.8108 0.0543 0.9181 161 142 144
1.8316 0.0702 0.9695 160 151 151
1.8142 0.0780 1.0229 129 117 117
1.8092 0.0946 1.0732 94 86 85
1.8039 0.0919 1.1209 102 94 94
1.8006 0.0829 1.1692 123 115 115
1.8275 0.0778 1.7373 46 45 36
1.8419 0.0898 1.7671 32 36 30
1.8166 0.0718 1.8217 41 43 36
1.8293 0.0771 1.8770 60 63 69
1.8175 0.0881 1.9253 31 39 32
1.8215 0.1195 0.2813 86 80 78
1.8217 0.1223 0.3191 107 102 101
1.8224 0.1184 0.3662 117 119 122
1.8101 0.1238 0.4324 114 114 117
1.8300 0.1276 0.4685 103 98 97
1.8322 0.1245 0.5139 102 89 86
1.8008 0.1053 0.9264 131 112 112
1.8058 0.1063 0.9741 107 91 90
1.8482 0.1355 1.7765 26 34 27
1.8296 0.1171 1.8678 31 38 31
1.8244 0.1207 1.9196 40 42 34
1.8277 0.1770 0.2646 103 84 78
1.8347 0.1734 0.3234 145 134 133
1.8412 0.1710 0.3752 145 132 131
1.8449 0.1700 0.4270 140 132 133
1.8442 0.1800 0.5290 122 109 110
1.8404 0.1534 0.5680 109 99 97
1.8274 0.1678 0.6311 121 116 115
1.8231 0.1726 0.6794 128 126 130
1.8194 0.1849 0.7271 138 130 131
1.8062 0.1806 1.9342 64 50 45
1.8176 0.1761 1.9936 79 71 64
1.8005 0.1804 2.0448 68 62 56
1.8260 0.2206 0.2383 129 115 111
1.8283 0.2157 0.2814 108 95 93
1.8427 0.2329 0.5848 71 50 43
1.8122 0.2228 0.6834 105 99 102
1.8027 0.2149 0.7407 155 147 150
1.8281 0.2205 0.7863 137 130 131
1.8249 0.2200 0.8337 137 129 128
1.8470 0.2195 0.8804 107 90 86
1.8034 0.2470 0.9841 118 106 103
1.8333 0.2246 1.0104 94 79 73
1.8002 0.2265 1.9954 92 83 83
1.8205 0.2144 2.0236 76 61 56
1.8196 0.2252 2.0863 72 64 64
1.8254 0.2749 0.2207 75 63 59
1.8257 0.2631 0.2738 73 72 64
1.8487 0.2604 0.6594 93 64 58
1.8347 0.2756 0.7242 120 96 93
1.8248 0.2512 0.7662 174 150 150
1.8122 0.2579 0.8861 117 105 104
1.8151 0.2509 0.9325 121 109 107
1.8106 0.2762 1.0397 98 87 83
1.8119 0.2777 1.0887 109 102 99
1.8286 0.2905 1.1262 101 90 87
1.8067 0.2971 1.1863 102 93 93
1.8027 0.2626 2.0955 65 58 54
1.8162 0.2710 2.1726 60 55 49
1.8197 0.2745 2.2228 56 51 41
1.8256 0.2972 2.3418 57 64 63
1.8188 0.3171 0.2153 151 127 117
1.8290 0.3105 0.2831 100 80 75
1.8392 0.3232 0.3260 71 68 60
1.8488 0.3070 0.6974 109 84 77
1.8484 0.3146 0.8942 80 64 64
1.8172 0.3472 1.0953 125 116 113
1.8128 0.3471 1.1425 120 107 106
1.8142 0.3411 1.1965 118 104 102
1.8068 0.3222 1.2367 113 102 102
1.8111 0.3398 1.2938 133 118 117
1.8475 0.3349 1.3829 48 42 35
1.8066 0.3026 2.2964 50 47 37
1.8076 0.3313 2.3119 71 71 59
1.8191 0.3274 2.3678 71 71 58
1.8317 0.3697 0.1966 140 117 110
1.8166 0.3594 0.2318 49 37 30
1.8295 0.3529 0.3135 109 94 90
1.8172 0.3646 1.0510 199 195 190
1.8291 0.3741 1.1308 151 138 130
1.8217 0.3909 1.2254 121 107 104
1.8135 0.3913 1.2931 152 131 126
1.8194 0.3877 1.3423 125 108 102
1.8372 0.3767 1.3944 60 51 44
1.8418 0.3766 1.4389 56 51 45
1.8476 0.3732 1.4943 48 45 39
1.8364 0.3992 1.6518 48 47 42
1.8420 0.3973 1.7028 46 49 43
1.8495 0.3853 1.8041 53 52 46
1.8473 0.3720 1.9005 68 63 58
1.8172 0.4300 0.1776 123 94 92
1.8281 0.4061 0.2261 48 34 34
1.8347 0.4323 0.8685 255 254 255
1.8088 0.4093 0.9983 222 221 220
1.8176 0.4011 1.0374 251 250 248
1.8158 0.4482 1.1064 132 120 117
1.8193 0.4346 1.1765 116 101 100
1.8244 0.4253 1.2495 95 85 80
1.8284 0.4183 1.2981 127 115 110
1.8255 0.4171 1.3510 120 105 98
1.8310 0.4238 1.4012 107 93 86
1.8298 0.4265 1.4512 86 74 66
1.8408 0.4147 1.5007 65 57 49
1.8377 0.4058 1.5760 66 59 52
1.8054 0.4246 1.6446 71 64 58
1.8351 0.4401 1.7247 60 56 47
1.8087 0.4468 1.7534 67 67 63
1.8208 0.4365 1.8043 59 63 61
1.8228 0.4214 1.8678 60 62 60
1.8260 0.4745 0.1753 127 103 99
1.8103 0.4576 0.8541 249 251 252
