ply
format ascii 1.0
element vertex 1391
property float x
property float y
property float z
property uchar red
property uchar green
property uchar blue
end_header
0.5241 0.6476 -0.1056 251 250 249
0.5043 0.6435 -0.0776 206 199 201
0.5082 0.6974 -0.0881 236 236 238
0.5026 0.7455 -0.1012 238 239 242
0.5216 0.7498 -0.0774 203 197 206
0.5147 0.7930 -0.0790 198 205 210
0.5047 0.8493 -0.1005 182 193 199
0.5456 0.8344 -0.0755 124 143 151
0.5019 0.8973 -0.1061 189 200 205
0.5076 0.9450 -0.0992 185 196 204
0.5264 0.9769 -0.0849 180 193 200
0.5094 1.0371 -0.1214 176 188 199
0.5225 1.0922 -0.1238 211 214 224
0.5026 1.0502 -0.0935 154 178 185
0.5150 1.1213 -0.0892 163 182 191
0.5043 1.1697 -0.1278 254 255 255
0.5476 1.1537 -0.0899 218 224 227
0.5462 1.2076 -0.1204 230 236 239
0.5473 1.2099 -0.0940 239 240 239
0.5267 1.2811 -0.1154 198 213 217
0.5071 1.2745 -0.0889 226 225 227
0.5101 1.3274 -0.1141 228 235 236
0.5194 1.3394 -0.0870 253 255 255
0.5344 1.3558 -0.1432 253 255 255
0.5124 1.4243 -0.1098 251 253 252
0.5188 1.4941 -0.1817 255 255 253
0.5031 1.4913 -0.1097 253 255 254
0.5021 1.5268 -0.1199 253 255 254
0.5309 1.5820 -0.1379 254 255 254
0.5335 1.6251 -0.1758 255 255 253
0.5043 1.6012 -0.1048 211 220 229
0.5312 1.6789 -0.1256 253 255 253
0.5135 1.7322 -0.1227 209 217 224
0.5185 1.7785 -0.1736 175 182 193
0.5464 1.7707 -0.0913 250 255 255
0.5062 1.8085 -0.1329 226 232 234
0.5452 1.8090 -0.0951 253 255 255
0.5112 1.8631 -0.2139 254 255 255
0.5076 1.8510 -0.1278 223 231 233
0.5012 1.9457 -0.2431 255 255 255
0.5008 1.9122 -0.1559 202 212 217
0.5001 1.9111 -0.1314 214 223 225
0.5269 1.9754 -0.2657 255 255 255
0.5028 1.9980 -0.2140 255 255 255
0.5406 1.9632 -0.1208 253 255 255
0.5243 2.0306 -0.2614 255 255 255
0.5234 2.0172 -0.1607 199 207 210
0.5365 2.0153 -0.1238 253 255 255
0.5312 2.0763 -0.2427 254 255 255
0.5268 2.0642 -0.1700 133 153 158
0.5280 2.0553 -0.1208 253 255 254
0.5379 2.1264 -0.2412 255 255 255
0.5073 2.1100 -0.1626 252 255 254
0.5202 2.1344 -0.1238 253 255 253
0.5310 2.1669 -0.1574 253 255 253
0.5325 2.2411 -0.2320 255 255 253
0.5366 2.2187 -0.1716 253 255 253
0.5456 2.2175 -0.1113 252 255 251
0.5058 2.2764 -0.1416 252 255 252
0.5343 2.3981 -0.2304 254 255 253
0.5462 2.4195 -0.1761 253 255 253
0.5191 2.4708 -0.2055 255 255 253
0.5178 2.4857 -0.1506 253 255 253
0.5066 2.5154 -0.2234 255 255 253
0.5465 2.5101 -0.1661 252 255 253
0.5242 2.5304 -0.0934 253 255 253
0.5184 2.5961 -0.1576 253 255 253
0.5179 2.5593 -0.1335 253 255 253
0.5252 2.6256 -0.1787 253 255 253
0.5161 2.6340 -0.1315 253 255 253
0.5366 2.6611 -0.2101 255 255 253
0.5286 2.7624 -0.1857 255 255 253
0.5237 2.8628 -0.1814 254 255 252
0.5301 2.9135 -0.1937 253 255 253
0.5043 2.9899 -0.1873 252 255 252
0.5187 3.0309 -0.2315 253 255 253
0.5493 3.0009 -0.1926 236 237 234
0.5163 3.0920 -0.1657 253 255 251
0.5226 3.1187 -0.2141 244 240 239
0.5420 3.1952 -0.2018 253 255 253
0.5086 3.1728 -0.1532 252 255 250
0.5203 3.2261 -0.2294 253 255 253
0.5362 3.2010 -0.1742 252 255 252
0.5252 3.2870 -0.1937 253 255 252
0.5250 3.3150 -0.2750 255 255 253
0.5344 3.3365 -0.1840 255 255 253
0.5439 3.3615 -0.2289 253 255 253
0.5823 -3.1702 -0.0866 128 138 148
0.5939 -3.1201 -0.0469 111 122 125
0.5601 -3.0708 -0.0608 90 103 119
0.5504 -3.0245 -0.0866 216 211 217
0.5846 -2.9727 -0.0788 190 195 204
0.5556 -2.9933 -0.0305 118 133 137
0.5874 -2.9033 -0.0183 120 131 136
0.5658 -2.8913 -0.1030 125 131 140
0.5681 -2.8727 -0.0646 159 161 167
0.5717 -2.8074 -0.1036 122 136 146
0.5518 -2.7529 -0.1261 134 150 158
0.5599 -2.7661 0.0029 113 117 120
0.5522 -2.7163 -0.1088 135 146 158
0.5545 -2.6245 -0.0107 159 155 154
0.5659 -2.5621 -0.0923 161 171 179
0.5763 -2.5518 -0.0036 131 134 140
0.5580 -2.5389 -0.0797 169 165 176
0.5779 -2.5019 -0.0064 131 137 142
0.5763 -2.4836 -0.0803 194 191 197
0.5559 -2.4536 -0.0226 131 140 144
0.5849 -2.4035 -0.0062 142 147 148
0.5815 -2.3538 -0.0664 184 187 195
0.5893 -2.3366 -0.1006 146 159 166
0.5778 -2.3133 -0.0764 170 169 175
0.5625 -2.2120 -0.0968 167 168 175
0.5902 -2.2402 -0.0134 249 225 220
0.5891 -2.1899 -0.0172 250 223 216
0.5735 -2.1149 -0.0750 139 149 158
0.5974 -2.1298 -0.0163 221 199 195
0.5615 -2.0314 -0.0920 137 144 151
0.5680 -2.0021 -0.0066 187 174 174
0.5631 -1.9495 -0.1076 121 133 142
0.5594 -1.9058 -0.0281 205 192 190
0.5683 -1.9401 0.0018 225 199 194
0.5811 -1.8566 -0.1156 140 146 149
0.5834 -1.8803 -0.0917 107 128 140
0.5625 -1.8756 -0.0179 171 169 170
0.5671 -1.8114 -0.0134 214 187 181
0.5672 -1.7761 -0.0685 113 131 141
0.5778 -1.6535 -0.1089 133 149 157
0.5632 -1.6784 -0.0272 151 153 152
0.5586 -1.6105 -0.0646 142 152 159
0.5662 -1.6131 -0.0304 129 138 139
0.5988 -1.5770 -0.0942 184 178 184
0.5515 -1.5812 -0.0234 125 133 140
0.5712 -1.5368 -0.0787 149 157 161
0.5597 -1.5113 -0.0474 156 162 165
0.5808 -1.4562 -0.0798 147 160 165
0.5544 -1.4673 -0.0389 161 163 165
0.5747 -1.4307 -0.0778 204 190 194
0.5664 -1.3675 -0.0577 128 140 147
0.5574 -1.3343 -0.0668 111 128 140
0.5720 -1.3142 0.0012 226 212 212
0.5682 -1.2645 -0.0446 112 131 141
0.5920 -1.2886 0.0321 243 223 218
0.5770 -1.2492 0.0178 252 233 223
0.5594 -1.1517 -0.0799 127 135 144
0.5773 -1.1541 -0.0358 113 130 138
0.5804 -1.1097 -0.0661 125 137 144
0.5724 -1.0789 -0.0949 131 142 148
0.5703 -1.0643 -0.0323 111 133 140
0.5602 -1.0145 -0.0529 113 132 140
0.5964 -1.0040 -0.0291 102 127 137
0.5747 -1.0178 0.0391 147 152 157
0.5677 -0.9552 -0.0729 122 139 146
0.5938 -0.9513 -0.0308 103 127 135
0.5563 -0.9093 -0.0575 120 135 142
0.5582 -0.8988 -0.0866 149 153 159
0.5774 -0.8369 -0.0465 121 137 143
0.5543 -0.8284 0.0088 137 153 155
0.5874 -0.7588 -0.0706 153 156 162
0.5660 -0.7632 -0.0449 167 171 176
0.5525 -0.7242 -0.0734 168 163 162
0.5543 -0.7046 -0.0258 172 172 174
0.5809 -0.6750 -0.0529 180 172 174
0.5696 -0.6719 0.0031 164 171 174
0.5881 -0.6058 -0.0704 171 161 164
0.5502 -0.6158 -0.0360 196 191 191
0.5746 -0.6225 0.0034 226 223 227
0.5819 -0.5593 -0.0568 141 143 145
0.5622 -0.5594 -0.0308 177 181 183
0.5654 -0.5119 -0.0580 161 158 158
0.5622 -0.4558 -0.0500 179 179 179
0.5603 -0.4948 -0.0360 182 184 183
0.5586 -0.4106 -0.0611 189 178 175
0.5566 -0.4172 -0.0305 202 195 194
0.5663 -0.3594 -0.0459 182 174 174
0.5616 -0.3093 -0.0559 175 171 171
0.5613 -0.2627 -0.0693 199 188 187
0.5956 -0.2206 -0.0815 146 145 146
0.5516 -0.2096 -0.0434 178 182 183
0.5587 -0.1947 -0.0758 181 175 175
0.5549 -0.1624 -0.0478 184 185 187
0.5582 -0.1059 -0.0504 161 167 171
0.5676 -0.0255 -0.0728 160 168 173
0.5606 -0.0004 -0.0402 172 174 177
0.5961 0.0404 -0.0566 188 191 196
0.5619 0.0306 -0.0458 183 189 193
0.5770 0.0706 -0.0353 128 134 139
0.5604 0.1213 -0.0638 178 177 181
0.5772 0.1223 -0.0417 117 121 129
0.5546 0.1897 -0.0631 152 152 154
0.5897 0.1972 -0.0337 92 96 101
0.5844 0.2456 -0.0707 211 210 217
0.5812 0.2243 -0.0308 115 127 127
0.5633 0.2875 -0.0727 227 223 225
0.5552 0.3376 -0.0544 230 217 216
0.5670 0.3755 -0.0672 233 225 222
0.5629 0.4258 -0.0751 252 250 244
0.5543 0.4939 -0.0897 251 249 245
0.5580 0.5277 -0.0718 236 234 230
0.5539 0.5804 -0.1113 253 255 253
0.5589 0.5971 -0.0799 235 233 231
0.5548 0.6429 -0.0814 234 233 232
0.5582 0.6981 -0.1106 253 255 255
0.5572 0.6922 -0.0750 193 199 203
0.5544 0.7422 -0.0701 173 179 185
0.5551 0.8043 -0.0849 225 228 231
0.5541 0.8540 -0.1006 162 176 186
0.5663 0.8764 -0.0714 154 171 179
0.5543 0.9081 -0.1088 187 197 203
0.5506 0.9459 -0.0970 183 194 202
0.5864 0.9718 -0.0684 144 166 170
0.5557 1.0264 -0.0909 157 174 184
0.5983 1.1385 -0.1159 253 255 255
0.5535 1.1027 -0.0915 162 178 185
0.5975 1.1896 -0.1109 253 255 255
0.5554 1.2462 -0.1164 205 215 218
0.5636 1.2389 -0.0920 252 255 254
0.5952 1.2630 -0.1215 229 233 235
0.5664 1.2890 -0.0823 253 255 254
0.5610 1.3425 -0.1092 235 239 239
0.5792 1.3942 -0.1423 253 255 255
0.5580 1.4018 -0.1055 249 251 250
0.5655 1.4506 -0.1156 253 255 255
0.5555 1.5045 -0.1179 253 255 254
0.5650 1.5687 -0.1146 225 231 235
0.5562 1.6339 -0.1166 162 183 198
0.5532 1.6580 -0.1793 184 182 194
0.5624 1.6766 -0.1235 253 255 253
0.5653 1.7777 -0.1413 253 255 254
0.5836 1.8210 -0.1697 253 255 255
0.5911 1.8204 -0.1051 253 255 255
0.5563 1.8994 -0.2540 255 255 255
0.5523 1.8734 -0.1533 201 212 216
0.5762 1.8584 -0.1233 214 223 225
0.5634 1.9141 -0.1317 173 188 192
0.5795 1.9825 -0.2720 255 255 255
0.5989 1.9628 -0.1569 253 255 255
0.5860 2.0204 -0.1686 253 255 255
0.6000 2.0041 -0.1270 247 250 251
0.5934 2.0721 -0.2214 253 255 255
0.5895 2.0921 -0.1600 253 255 253
0.5871 2.0990 -0.1251 253 255 253
0.5901 2.1056 -0.2623 255 255 255
0.5527 2.1164 -0.1508 253 255 253
0.5679 2.1261 -0.1209 253 255 253
0.5624 2.1535 -0.2285 255 255 255
0.6000 2.1607 -0.1484 253 255 253
0.5877 2.2124 -0.1156 252 255 251
0.5870 2.2525 -0.2089 255 255 253
0.5774 2.2606 -0.1465 253 255 253
0.5501 2.3200 -0.1885 255 255 253
0.5770 2.3311 -0.1376 253 255 253
0.5881 2.3924 -0.2124 253 255 253
0.5845 2.3895 -0.1048 253 255 253
0.5783 2.4152 -0.1692 254 255 253
0.5544 2.4798 -0.1801 254 255 253
0.5628 2.4649 -0.1294 253 255 253
0.5692 2.5203 -0.2054 254 255 253
0.5881 2.5077 -0.1742 253 254 252
0.5736 2.5336 -0.1155 253 255 253
0.5861 2.5537 -0.1519 251 253 249
0.5746 2.5903 -0.1342 253 255 253
0.5600 2.6477 -0.1555 252 254 251
0.5548 2.6976 -0.1565 254 255 253
0.5926 2.7043 -0.2083 253 255 253
0.5885 2.7017 -0.1633 253 255 253
0.5710 2.7551 -0.1551 253 255 252
0.5587 2.7744 -0.1139 253 255 253
0.5628 2.8268 -0.2023 253 255 253
0.5738 2.8228 -0.1547 253 255 253
0.5518 2.8550 -0.1538 253 255 253
0.5990 2.9062 -0.2330 253 255 253
0.5926 2.9275 -0.1768 253 255 252
0.5559 2.9532 -0.1771 246 247 243
0.5924 3.0122 -0.2247 253 255 253
0.5713 3.0844 -0.2185 253 255 253
0.5533 3.1143 -0.1908 252 255 252
0.5736 3.1542 -0.2185 253 255 253
0.5770 3.2305 -0.2412 253 255 253
0.5791 3.2672 -0.2104 253 255 252
0.5550 3.2623 -0.1772 249 251 249
0.5979 3.3278 -0.2507 255 255 253
0.5579 3.3264 -0.1864 253 255 253
0.5937 3.3605 -0.1979 251 253 250
0.6135 -3.2366 -0.1022 138 146 150
0.6267 -3.2088 -0.0274 117 130 135
0.6118 -3.1653 -0.0370 124 132 134
0.6229 -3.0712 -0.0435 152 147 149
0.6446 -3.0034 -0.0245 124 133 134
0.6208 -2.9790 -0.1159 130 136 145
0.6218 -2.9996 -0.0831 176 179 189
0.6413 -2.9202 -0.1058 140 150 160
0.6261 -2.9079 -0.0869 111 124 132
0.6079 -2.8790 -0.0965 121 133 144
0.6026 -2.8131 -0.0818 150 151 157
0.6380 -2.8381 -0.0250 218 211 213
0.6242 -2.7724 -0.1098 138 149 160
0.6377 -2.7923 0.0033 162 157 158
0.6008 -2.7352 -0.1117 142 150 160
0.6185 -2.7159 -0.0345 142 141 146
0.6487 -2.7302 0.0053 220 207 203
0.6397 -2.6672 -0.1198 199 196 203
0.6133 -2.6065 -0.0904 171 170 176
0.6312 -2.6317 -0.0203 139 143 146
0.6133 -2.5559 -0.0922 172 171 178
0.6335 -2.5713 -0.0198 141 145 148
0.6127 -2.4595 -0.0979 209 210 214
0.6208 -2.4950 -0.0311 137 144 146
0.6201 -2.4178 -0.0329 155 155 155
0.6411 -2.3524 -0.1016 128 141 150
0.6093 -2.3676 -0.0733 191 185 186
0.6472 -2.3434 -0.0981 126 142 153
0.6192 -2.3331 -0.0111 181 171 173
0.6098 -2.2655 -0.0811 149 146 154
0.6120 -2.2827 -0.0163 198 178 177
0.6142 -2.2067 -0.0921 142 149 157
0.6269 -2.1755 -0.0651 227 199 190
0.6463 -2.1254 -0.0622 139 152 159
0.6167 -2.0573 -0.0907 174 169 175
0.6051 -2.0669 -0.0260 162 160 159
0.6078 -2.0236 -0.0504 187 181 182
0.6171 -2.0135 -0.0169 204 191 187
0.6090 -1.9512 -0.0862 139 148 155
0.6146 -1.9607 -0.0274 205 191 190
0.6164 -1.9114 -0.0207 189 174 175
0.6170 -1.8629 -0.0396 153 149 152
0.6180 -1.8100 -0.0119 192 177 171
0.6122 -1.7749 -0.0679 110 127 136
0.6294 -1.7601 -0.0065 185 178 172
0.6343 -1.7162 -0.0831 129 144 149
0.6149 -1.7134 -0.0124 179 169 166
0.6138 -1.6615 -0.0657 150 153 159
0.6192 -1.6821 -0.0129 160 156 157
0.6273 -1.6412 -0.1000 142 152 162
0.6323 -1.6333 -0.0586 127 138 147
0.6044 -1.6151 -0.0171 132 133 137
0.6104 -1.5115 -0.0934 167 170 176
0.6118 -1.5451 -0.0341 122 139 146
0.6407 -1.4628 -0.0900 183 184 185
0.6047 -1.4768 -0.0307 156 159 161
0.6040 -1.4160 -0.0885 142 149 156
0.6065 -1.4140 -0.0279 139 152 161
0.6035 -1.3648 -0.0809 127 142 151
0.6248 -1.3666 -0.0268 132 145 151
0.6421 -1.3910 0.0322 135 139 143
0.6107 -1.3120 -0.0595 123 135 145
0.6226 -1.3244 0.0032 171 167 164
0.6074 -1.2625 -0.0513 123 133 140
0.6068 -1.2217 -0.0866 116 135 143
0.6069 -1.2063 -0.0383 107 124 133
0.6087 -1.1625 -0.0709 115 131 140
0.6138 -1.1689 -0.0394 99 121 129
0.6440 -1.1541 0.0642 251 232 222
0.6224 -1.1286 -0.0305 106 128 136
0.6282 -1.1000 0.0707 250 229 218
0.6315 -1.0838 -0.0674 117 132 141
0.6074 -1.0616 -0.0243 111 132 140
0.6207 -1.0201 -0.0460 117 136 142
0.6204 -0.9617 -0.0766 123 139 145
0.6128 -0.9060 -0.0450 118 133 141
0.6132 -0.9419 0.0422 143 151 155
0.6299 -0.8503 -0.0528 119 139 146
0.6265 -0.8128 -0.0615 125 139 145
0.6320 -0.8288 0.0397 131 146 150
0.6089 -0.7722 -0.0489 142 153 158
0.6162 -0.7661 0.0298 145 160 164
0.6252 -0.7158 -0.0420 146 148 152
0.6091 -0.7346 0.0256 127 145 146
0.6198 -0.6519 0.0148 176 180 183
0.6236 -0.6390 -0.0628 189 177 179
0.6069 -0.6162 -0.0302 167 166 168
0.6157 -0.6088 0.0157 244 239 234
0.6208 -0.5612 -0.0335 127 135 142
0.6086 -0.5083 -0.0515 191 183 184
0.6306 -0.5335 -0.0365 121 136 143
0.6077 -0.5469 0.0017 240 233 231
0.6199 -0.4662 -0.0622 181 177 177
0.6061 -0.4721 -0.0273 177 180 183
0.6043 -0.4112 -0.0641 163 161 164
0.6181 -0.4196 -0.0250 191 189 187
0.6097 -0.3642 -0.0591 133 140 145
0.6120 -0.3607 -0.0166 228 220 215
0.6266 -0.3173 -0.0662 186 176 179
0.6226 -0.3182 -0.0162 219 224 220
0.6491 -0.2548 -0.0541 154 155 155
0.6110 -0.2605 -0.0236 178 181 184
0.6300 -0.2471 -0.0774 179 169 170
0.6103 -0.2077 -0.0414 178 177 179
0.6457 -0.1720 -0.0839 120 135 139
0.6217 -0.1647 -0.0340 158 161 165
0.6196 -0.1260 -0.0677 139 140 145
0.6105 -0.1007 -0.0492 148 153 157
0.6084 -0.0630 -0.0495 153 159 162
0.6203 -0.0494 -0.0786 123 133 139
0.6155 -0.0127 -0.0443 164 170 173
0.6112 0.0082 -0.0629 142 155 160
0.6155 0.0391 -0.0458 165 172 179
0.6452 0.0957 -0.0654 148 154 160
0.6281 0.0899 -0.0355 166 172 176
0.6041 0.1197 -0.0569 168 175 179
0.6100 0.1925 -0.0533 182 180 180
0.6463 0.1807 -0.0403 184 188 193
0.6374 0.2286 -0.0322 163 142 131
0.6318 0.2673 -0.1049 150 155 165
0.6139 0.2883 -0.0621 182 173 172
0.6483 0.2907 -0.0234 143 127 126
0.6106 0.3353 -0.0761 235 239 245
0.6063 0.3890 -0.0839 214 204 202
0.6177 0.4192 -0.0697 206 193 191
0.6108 0.4884 -0.0670 247 247 243
0.6467 0.5448 -0.0566 247 250 243
0.6120 0.5789 -0.1081 253 255 251
0.6036 0.5738 -0.0802 249 250 247
0.6078 0.6234 -0.0673 238 234 234
0.6250 0.6425 -0.0499 155 151 154
0.6441 0.6823 -0.1303 253 255 253
0.6055 0.6900 -0.0718 206 202 205
0.6246 0.7033 -0.1864 252 249 250
0.6111 0.7415 -0.1104 237 243 239
0.6107 0.7412 -0.0742 188 193 198
0.6063 0.7465 -0.0407 129 139 144
0.6044 0.7882 -0.0725 172 181 187
0.6073 0.8300 -0.0879 146 160 164
0.6098 0.8938 -0.0789 162 176 187
0.6038 0.9477 -0.0971 155 170 181
0.6313 0.9903 -0.1292 255 255 255
0.6240 0.9946 -0.0641 171 181 191
0.6133 1.0254 -0.0948 187 188 192
0.6233 1.0761 -0.1205 253 254 255
0.6180 1.0501 -0.0533 178 188 196
0.6056 1.1249 -0.0942 204 212 216
0.6055 1.1921 -0.0970 253 255 254
0.6388 1.2235 -0.1191 255 255 255
0.6052 1.2457 -0.0946 234 238 238
0.6488 1.2579 -0.1118 239 241 241
0.6069 1.2917 -0.0856 254 255 255
0.6077 1.3223 -0.1127 241 243 244
0.6125 1.3267 -0.0809 253 255 252
0.6038 1.3995 -0.1143 251 253 251
0.6280 1.3898 -0.0905 253 255 253
0.6276 1.4202 -0.1595 255 255 253
0.6074 1.4401 -0.1282 253 255 255
0.6045 1.4933 -0.1148 251 254 252
0.6157 1.5326 -0.1322 254 255 253
0.6111 1.5444 -0.0603 229 231 235
0.6072 1.5974 -0.1167 212 220 226
0.6378 1.5506 -0.0685 175 188 203
0.6179 1.6140 -0.1302 179 183 197
0.6391 1.6014 -0.0630 154 169 184
0.6318 1.6567 -0.1255 188 194 205
0.6095 1.7040 -0.1389 238 240 242
0.6158 1.7042 -0.0866 213 219 224
0.6321 1.7897 -0.1931 255 255 255
0.6066 1.7989 -0.1281 176 189 194
0.6149 1.7684 -0.0976 253 255 255
0.6422 1.8455 -0.1665 253 255 255
0.6435 1.8082 -0.1349 253 255 255
0.6344 1.8962 -0.1877 253 255 255
0.6050 1.9200 -0.1196 204 213 216
0.6452 1.9507 -0.1738 253 255 255
0.6396 1.9880 -0.1486 253 255 253
0.6348 2.0319 -0.1171 253 255 254
0.6477 2.0610 -0.1326 253 255 253
0.6332 2.1742 -0.2355 255 255 255
0.6412 2.1623 -0.1957 255 255 253
0.6094 2.1567 -0.1278 253 255 253
0.6025 2.2860 -0.2231 255 255 253
0.6444 2.2912 -0.1744 255 255 253
0.6243 2.2974 -0.1135 253 255 253
0.6236 2.3213 -0.2268 255 255 253
0.6478 2.3077 -0.1256 253 255 253
0.6257 2.3600 -0.1658 255 255 253
0.6267 2.4417 -0.2022 253 255 253
0.6469 2.4122 -0.1962 254 255 253
0.6376 2.4163 -0.1399 253 255 253
0.6022 2.4804 -0.1595 252 255 253
0.6195 2.4582 -0.1234 252 255 251
0.6312 2.5187 -0.1751 253 255 253
0.6015 2.5543 -0.2049 253 255 253
0.6268 2.5515 -0.1984 255 255 253
0.6201 2.6206 -0.1754 249 250 247
0.6286 2.6265 -0.1258 253 255 253
0.6293 2.7143 -0.1764 255 255 253
0.6340 2.7107 -0.1256 253 255 253
0.6432 2.7568 -0.1740 251 252 251
0.6272 2.8187 -0.1721 253 255 253
0.6389 2.8946 -0.1952 253 255 252
0.6459 2.9020 -0.1518 187 191 193
0.6279 2.9720 -0.2087 252 255 252
0.6442 2.9627 -0.1950 207 208 208
0.6498 3.0340 -0.2104 253 255 253
0.6057 3.0039 -0.1916 253 255 253
0.6191 3.0536 -0.2012 253 255 253
0.6423 3.0517 -0.1921 219 218 218
0.6259 3.1589 -0.1854 253 255 253
0.6476 3.2286 -0.1998 252 255 253
0.6374 3.2546 -0.2091 253 255 252
0.6055 3.3133 -0.1793 253 255 253
0.6430 3.3677 -0.2108 253 255 253
0.6432 3.3602 -0.1778 253 255 253
0.6338 3.4079 -0.2112 253 255 253
0.6274 3.4177 -0.1696 253 255 251
0.6651 -3.2608 -0.1486 158 166 172
0.6854 -3.2429 -0.0474 145 147 149
0.6914 -3.0887 -0.1024 140 145 154
0.6562 -3.0437 -0.0927 155 160 170
0.6750 -2.9652 -0.1092 140 143 151
0.6780 -2.9232 -0.0886 112 126 138
0.6778 -2.9232 -0.0146 160 152 150
0.6785 -2.8567 -0.1304 166 167 176
0.6855 -2.8520 -0.0105 169 152 144
0.6584 -2.8080 -0.1046 154 158 168
0.6969 -2.8107 -0.0949 167 170 180
0.6869 -2.8013 -0.0131 191 185 180
0.6756 -2.7168 -0.1199 140 146 155
0.6690 -2.6772 0.0121 190 182 181
0.6594 -2.6379 0.0039 150 147 150
0.6664 -2.5892 -0.1058 192 196 200
0.6704 -2.5783 -0.0781 227 215 219
0.6989 -2.5035 -0.1051 166 172 177
0.6543 -2.5314 -0.0057 143 143 143
0.6647 -2.4832 -0.1013 178 180 179
0.6681 -2.4770 -0.0016 144 148 149
0.6543 -2.4047 -0.0897 164 167 173
0.6700 -2.4295 -0.0033 152 152 155
0.6927 -2.3631 -0.1022 116 130 138
0.6841 -2.3576 -0.0510 223 207 210
0.6867 -2.3569 0.0022 164 157 157
0.6688 -2.2913 -0.0863 142 143 147
0.6938 -2.2713 0.0012 233 208 201
0.6781 -2.2385 -0.0943 113 123 131
0.6821 -2.2083 -0.0094 236 208 199
0.6756 -2.1715 -0.0997 171 166 170
0.6621 -2.1803 -0.0227 183 163 163
0.6991 -2.1217 -0.0562 136 141 144
0.6587 -2.1221 -0.0303 186 168 168
0.6590 -2.0886 -0.0736 203 190 194
0.6640 -2.0331 -0.0896 162 164 170
0.6825 -2.0261 -0.0314 162 160 163
0.6604 -1.9681 -0.0926 141 147 155
0.6724 -1.9771 -0.0287 137 130 133
0.6726 -1.9203 -0.0320 192 174 173
0.6848 -1.9170 0.0004 152 150 150
0.6544 -1.8532 -0.0879 144 145 150
0.6721 -1.8589 -0.0214 167 158 161
0.6830 -1.8149 -0.0666 104 122 132
0.6687 -1.8161 -0.0015 213 198 191
0.6655 -1.7517 -0.0734 148 153 159
0.6798 -1.7770 -0.0132 154 151 157
0.6805 -1.7179 -0.0743 131 142 148
0.6648 -1.7160 -0.0221 154 150 152
0.6872 -1.6655 -0.0701 112 128 135
0.6623 -1.6640 -0.0220 136 140 142
0.6881 -1.6959 0.0084 162 150 152
0.6811 -1.6140 -0.0760 187 188 195
0.6640 -1.6161 -0.0211 129 133 135
0.6661 -1.5546 -0.0593 165 169 176
0.6844 -1.5603 -0.0229 152 151 149
0.6616 -1.5146 -0.0715 182 184 189
0.6515 -1.5130 -0.0184 165 164 161
0.6648 -1.4694 -0.0604 171 173 178
0.6698 -1.4643 -0.0100 148 145 146
0.6535 -1.4252 -0.1056 126 139 147
0.6889 -1.4470 -0.0795 181 178 179
0.6578 -1.4103 -0.0287 196 188 192
0.6826 -1.3803 -0.1049 110 128 137
0.6675 -1.3659 0.0021 198 189 184
0.6587 -1.3184 -0.0532 133 144 150
0.6784 -1.3275 -0.0013 144 145 142
0.6662 -1.2766 -0.0686 105 126 135
0.6644 -1.2620 -0.0357 143 143 150
0.6675 -1.2862 0.0414 222 205 199
0.6717 -1.2226 -0.0864 117 137 145
0.6606 -1.2182 -0.0449 101 123 132
0.6876 -1.2293 0.0492 212 198 199
0.6565 -1.1531 -0.0377 112 130 139
0.6756 -1.1448 -0.0805 119 137 147
0.6655 -1.1204 -0.0334 107 127 137
0.6634 -1.0566 -0.0685 126 141 148
0.6759 -1.0692 -0.0374 112 132 141
0.6571 -1.0118 -0.0598 126 141 147
0.6605 -1.0130 -0.0243 104 127 138
0.6606 -0.9660 -0.0673 127 142 147
0.6838 -0.9521 -0.0293 101 124 135
0.6685 -0.9768 0.0752 127 140 140
0.6609 -0.9165 -0.0985 117 134 143
0.6679 -0.9188 -0.0350 125 137 144
0.6992 -0.9262 0.0704 211 212 203
0.6591 -0.8571 -0.0387 134 146 151
0.6843 -0.8865 0.0684 130 139 138
0.6772 -0.8121 -0.0608 119 134 141
0.6769 -0.7578 -0.0572 127 140 146
0.6617 -0.7645 0.0481 142 156 162
0.6961 -0.7913 0.0641 128 146 149
0.6598 -0.7256 -0.0688 183 174 175
0.6778 -0.6648 -0.0355 162 163 167
0.6586 -0.6268 -0.0350 161 165 170
0.6883 -0.6401 0.0514 188 191 197
0.6621 -0.5614 -0.0379 164 164 167
0.6709 -0.5793 0.0298 205 206 199
0.6730 -0.5041 -0.0582 190 186 186
0.6601 -0.5286 -0.0466 170 171 174
0.6838 -0.5113 0.0259 175 172 166
0.6593 -0.4552 -0.0296 178 180 183
0.6879 -0.4561 0.0326 204 202 201
0.6647 -0.4127 -0.0530 151 157 161
0.6548 -0.4194 -0.0098 236 225 221
0.6588 -0.3601 -0.0625 181 176 177
0.6754 -0.3712 -0.0365 121 133 143
0.6744 -0.3157 -0.0241 152 155 158
0.6716 -0.2602 -0.0195 166 169 172
0.6712 -0.2228 -0.0925 119 135 139
0.6631 -0.2094 -0.0231 146 154 156
0.6693 -0.1664 -0.0272 170 173 180
0.6568 -0.1173 -0.0405 121 133 139
0.6695 -0.0735 -0.0781 131 141 145
0.6574 -0.0610 -0.0428 140 153 156
0.6690 -0.0192 -0.0761 142 149 151
0.6582 -0.0209 -0.0439 136 148 153
0.6519 0.0392 -0.0624 134 142 145
0.6650 0.0423 -0.0390 164 178 184
0.6893 0.0525 -0.0697 143 151 155
0.6635 0.0836 -0.0276 122 135 140
0.6536 0.1473 -0.0605 149 151 154
0.6587 0.1324 -0.0435 155 166 173
0.6618 0.1852 -0.0550 160 166 171
0.6504 0.2306 -0.0528 158 160 162
0.6589 0.2917 -0.0551 211 207 207
0.6606 0.3415 -0.0590 211 203 202
0.6648 0.3738 -0.0689 186 172 169
0.6551 0.4336 -0.0723 255 250 240
0.6589 0.4975 -0.0675 252 253 250
0.6643 0.5484 -0.0768 248 245 241
0.6611 0.5981 -0.0811 243 237 236
0.6514 0.5755 -0.0462 232 215 210
0.6700 0.6389 -0.0614 224 223 223
0.6763 0.6904 -0.0732 210 214 214
0.6554 0.6876 -0.0469 164 157 160
0.6562 0.7395 -0.0679 198 204 206
0.6829 0.7353 -0.0442 117 125 130
0.6723 0.7660 -0.1167 168 176 185
0.6555 0.7950 -0.0847 164 170 184
0.6714 0.8426 -0.0850 155 164 173
0.6542 0.8926 -0.0824 176 185 191
0.6518 0.9417 -0.0704 136 158 166
0.6651 0.9693 -0.0845 172 182 192
0.6636 1.0428 -0.0911 205 213 216
0.6927 1.0752 -0.1269 253 255 255
0.6632 1.0995 -0.0887 221 225 225
0.6682 1.1401 -0.1198 255 255 255
0.6547 1.1477 -0.0898 224 229 230
0.6938 1.1966 -0.1149 253 255 255
0.6761 1.1975 -0.0934 249 250 249
0.6612 1.2480 -0.0946 253 253 252
0.6574 1.2987 -0.1162 253 255 254
0.6942 1.2519 -0.0944 253 255 254
0.6600 1.3471 -0.1156 253 255 254
0.6623 1.3232 -0.0810 254 255 253
0.6773 1.3782 -0.1117 252 254 252
0.6768 1.4254 -0.1287 253 255 255
0.6739 1.4096 -0.0895 253 255 253
0.6759 1.4720 -0.1587 253 255 255
0.6623 1.4625 -0.0788 250 253 250
0.6685 1.5172 -0.1093 220 224 227
0.6945 1.5670 -0.1549 237 238 241
0.6620 1.5870 -0.1377 227 229 232
0.6875 1.5517 -0.0742 167 187 201
0.6876 1.6240 -0.1932 253 255 255
0.6522 1.6044 -0.1037 211 220 225
0.6589 1.6368 -0.0959 217 223 228
0.6718 1.6750 -0.1052 251 255 254
0.6727 1.7130 -0.1534 201 203 209
0.6589 1.7620 -0.1189 138 155 161
0.6668 1.8180 -0.1128 131 150 157
0.6546 1.8723 -0.1175 183 194 199
0.6951 1.8761 -0.0987 207 208 213
0.6985 1.9243 -0.1172 253 255 253
0.6759 1.9721 -0.2271 255 255 255
0.6515 1.9566 -0.1061 253 255 254
0.6955 1.9818 -0.0899 253 255 253
0.6988 2.0095 -0.1178 252 255 253
0.6747 2.0593 -0.1918 253 255 255
0.6618 2.1176 -0.1217 253 255 253
0.6588 2.1618 -0.1531 253 255 253
0.6589 2.1770 -0.1175 252 255 251
0.6574 2.2328 -0.2342 255 255 253
0.6842 2.2108 -0.1891 254 255 253
0.6737 2.2389 -0.1384 253 255 253
0.6869 2.2589 -0.2323 255 255 253
0.6899 2.2762 -0.1964 253 255 253
0.6746 2.2779 -0.1208 253 255 253
0.6948 2.3199 -0.2060 254 255 253
0.6992 2.3060 -0.1356 253 255 252
0.6687 2.3692 -0.1700 255 255 253
0.6549 2.4495 -0.2099 253 255 253
0.6762 2.4275 -0.1393 253 255 252
0.6867 2.4663 -0.1971 253 255 253
0.6583 2.4990 -0.1440 254 255 250
0.6910 2.5133 -0.1713 253 255 253
0.6978 2.5027 -0.1343 247 248 245
0.6602 2.5521 -0.1765 252 253 251
0.6756 2.5888 -0.1470 253 255 253
0.6826 2.6181 -0.2015 243 244 242
0.6843 2.6481 -0.1253 254 255 253
0.6678 2.6693 -0.1854 253 255 253
0.6725 2.6766 -0.1120 253 255 253
0.6689 2.7057 -0.1786 253 255 253
0.6733 2.7685 -0.2083 253 255 251
0.6814 2.7609 -0.1270 255 255 253
0.6626 2.8122 -0.1782 253 255 253
0.6929 2.8101 -0.1496 253 255 252
0.6872 2.8613 -0.2091 253 255 251
0.6741 2.8759 -0.1688 253 255 253
0.6544 2.9924 -0.1986 253 255 253
0.6530 3.1112 -0.2074 253 255 253
0.6555 3.1086 -0.1852 245 246 243
0.6904 3.1239 -0.1428 253 255 253
0.6937 3.2071 -0.2032 253 255 253
0.6541 3.2002 -0.1722 253 255 252
0.6941 3.2943 -0.2117 252 255 253
0.6566 3.2616 -0.1727 253 255 253
0.6786 3.3187 -0.1828 253 255 253
0.6521 3.3930 -0.2353 253 255 253
0.6768 3.3851 -0.1758 253 255 253
0.6894 3.4200 -0.2087 253 255 252
0.7021 -3.2798 -0.1521 150 160 168
0.7439 -3.2637 -0.1445 136 146 154
0.7362 -3.1554 -0.0057 134 141 141
0.7220 -3.1484 -0.1570 124 137 144
0.7343 -3.0980 -0.1010 143 146 157
0.7442 -3.0949 -0.0120 163 163 163
0.7477 -3.0394 -0.0063 152 149 150
0.7213 -2.9895 -0.1006 121 120 127
0.7356 -2.9811 -0.0176 157 154 150
0.7237 -2.9384 -0.1035 169 175 179
0.7192 -2.8501 -0.1115 170 172 178
0.7255 -2.7517 -0.1166 193 194 199
0.7153 -2.7180 -0.0018 154 151 155
0.7163 -2.6586 -0.0679 180 170 175
0.7257 -2.6576 0.0002 127 125 128
0.7243 -2.5817 -0.0920 211 208 210
0.7355 -2.5723 -0.0228 191 180 177
0.7449 -2.5874 0.0069 140 133 135
0.7131 -2.5336 -0.0344 188 181 179
0.7220 -2.4733 -0.0227 180 166 166
0.7143 -2.4327 -0.0920 139 146 154
0.7068 -2.4023 -0.0357 217 197 194
0.7454 -2.3576 -0.0967 114 130 137
0.7221 -2.3847 -0.0479 198 185 192
0.7468 -2.3063 -0.0120 235 208 203
0.7113 -2.2781 -0.0835 132 139 144
0.7451 -2.2574 -0.0158 221 198 190
0.7067 -2.2114 -0.1024 137 143 150
0.7437 -2.2372 -0.0996 122 129 138
0.7344 -2.2194 -0.0243 196 181 179
0.7300 -2.1645 -0.0637 137 132 133
0.7171 -2.1044 -0.0858 142 146 152
0.7431 -2.0738 -0.0689 144 147 149
0.7207 -2.0082 -0.0705 149 154 159
0.7092 -2.0478 -0.0489 151 147 146
0.7272 -1.9659 -0.0852 135 146 153
0.7271 -1.9544 -0.0194 143 148 147
0.7177 -1.9164 -0.0616 153 146 150
0.7330 -1.9059 -0.0055 133 133 133
0.7288 -1.8631 -0.0834 147 143 147
0.7485 -1.8219 -0.0006 189 177 172
0.7153 -1.8499 0.0036 195 189 182
0.7290 -1.7751 -0.0312 147 146 150
0.7168 -1.7163 -0.0682 157 163 168
0.7173 -1.7272 -0.0108 168 160 156
0.7224 -1.6670 -0.0272 139 138 138
0.7168 -1.6496 -0.0971 255 247 248
0.7150 -1.6261 -0.0297 138 141 140
0.7124 -1.6263 0.0179 133 135 137
0.7126 -1.5831 -0.0495 168 155 150
0.7266 -1.5255 -0.0332 208 207 212
0.7145 -1.4905 -0.0587 202 201 203
0.7135 -1.4663 -0.0043 151 148 147
0.7249 -1.4295 -0.0569 186 185 189
0.7079 -1.4093 -0.0121 186 176 170
0.7260 -1.3664 -0.0683 107 124 132
0.7268 -1.3750 0.0223 200 195 190
0.7264 -1.3302 -0.0894 109 128 138
0.7145 -1.3121 -0.0476 125 139 146
0.7073 -1.2549 -0.0693 106 128 137
0.7176 -1.2552 0.0305 203 190 187
0.7309 -1.2113 -0.0705 113 130 139
0.7212 -1.2475 0.0437 159 156 157
0.7139 -1.1632 -0.0801 115 136 144
0.7182 -1.1303 -0.0245 102 126 134
0.7427 -1.1418 0.0897 220 202 199
0.7109 -1.0314 -0.0686 131 141 147
0.7163 -1.0292 -0.0284 104 130 138
0.7078 -1.0389 0.0999 157 148 144
0.7020 -0.9616 -0.0617 123 141 148
0.7077 -0.9710 -0.0273 109 130 139
0.7106 -0.9016 -0.0593 119 136 143
0.7187 -0.9037 -0.0272 136 145 151
0.7065 -0.8766 -0.0875 95 118 127
0.7289 -0.8754 -0.0395 118 137 147
0.7092 -0.8329 -0.0856 98 121 129
0.7164 -0.8179 -0.0440 118 134 141
0.7467 -0.8494 0.0898 143 152 151
0.7354 -0.7719 -0.0855 142 153 160
0.7396 -0.7937 0.0921 148 164 164
0.7220 -0.7229 -0.0227 140 150 154
0.7157 -0.7191 0.0669 144 159 162
0.7305 -0.6838 0.0718 159 172 174
0.7244 -0.6214 -0.0213 179 180 184
0.7210 -0.6443 0.0608 222 222 222
0.7092 -0.5617 -0.0280 186 184 188
0.7493 -0.5744 0.0641 241 238 233
0.7082 -0.5217 -0.0557 171 170 171
0.7267 -0.5176 -0.0387 157 160 164
0.7024 -0.5433 0.0437 219 215 209
0.7019 -0.4654 -0.0308 175 174 178
0.7115 -0.4794 0.0320 204 204 200
0.7255 -0.4138 -0.0423 165 165 167
0.7350 -0.4186 0.0430 199 201 197
0.7069 -0.3586 -0.0597 158 164 166
0.7098 -0.3519 0.0178 235 235 229
0.7078 -0.3086 -0.0515 162 167 170
0.7118 -0.2598 -0.0727 124 138 143
0.7178 -0.2637 -0.0151 159 160 162
0.7093 -0.2145 -0.0290 156 161 165
0.7158 -0.1502 -0.0112 173 185 189
0.7207 -0.1980 0.0260 180 186 191
0.7119 -0.1260 -0.0438 133 144 149
0.7082 -0.0538 -0.0700 152 157 158
0.7045 -0.0566 -0.0411 141 153 157
0.7151 -0.0842 0.0015 210 212 214
0.7093 -0.0027 -0.0327 149 158 164
0.7153 0.0288 -0.0335 135 145 149
0.7156 0.0842 -0.0540 157 157 157
0.7082 0.0865 -0.0336 150 162 165
0.7255 0.1186 -0.0686 130 138 142
0.7064 0.1441 -0.0369 151 159 164
0.7182 0.1904 -0.0598 168 176 180
0.7130 0.1976 -0.0357 149 157 160
0.7089 0.2422 -0.0540 160 165 166
0.7135 0.2301 -0.0317 191 195 199
0.7023 0.2931 -0.0564 196 194 195
0.7077 0.2827 -0.0298 184 180 180
0.7093 0.3349 -0.0544 200 196 197
0.7146 0.3970 -0.0559 232 228 225
0.7218 0.3828 -0.0239 204 191 193
0.7013 0.4386 -0.0557 239 235 233
0.7281 0.4636 -0.0739 242 233 229
0.7103 0.4924 -0.0493 248 242 238
0.7066 0.5036 -0.0768 248 248 244
0.7005 0.5376 -0.0484 246 237 234
0.7218 0.5648 -0.0813 241 234 232
0.7258 0.5795 -0.0451 212 210 208
0.7027 0.6501 -0.0787 199 202 205
0.7075 0.7404 -0.0699 207 212 216
0.7271 0.7058 -0.0439 185 182 191
0.7107 0.7998 -0.0718 186 194 199
0.7068 0.7688 -0.0451 110 125 131
0.7042 0.8760 -0.0773 148 165 171
0.7029 0.9460 -0.0731 177 188 190
0.7076 0.9926 -0.0873 235 238 239
0.7104 1.0020 -0.0712 184 189 191
0.7112 1.0756 -0.0898 212 218 223
0.7005 1.1070 -0.1331 253 255 255
0.7084 1.1326 -0.0759 238 242 242
0.7454 1.1792 -0.0568 253 255 250
0.7245 1.2311 -0.1160 253 255 253
0.7129 1.2847 -0.1171 252 255 253
0.7109 1.3245 -0.0858 253 255 251
0.7064 1.4014 -0.1104 252 254 252
0.7092 1.4545 -0.1106 245 248 249
0.7033 1.4714 -0.0840 173 173 187
0.7030 1.5503 -0.1067 213 219 223
0.7316 1.5978 -0.0781 244 251 253
0.7066 1.6483 -0.1595 220 221 225
0.7103 1.6011 -0.1198 253 255 253
0.7490 1.6752 -0.1233 253 255 255
0.7172 1.7452 -0.1150 200 209 213
0.7077 1.7018 -0.0954 253 255 254
0.7376 1.7738 -0.1464 202 209 214
0.7361 1.8210 -0.1688 253 255 255
0.7026 1.8039 -0.1036 208 215 217
0.7234 1.8759 -0.1209 226 229 232
0.7455 1.9422 -0.1190 250 252 250
0.7234 1.9801 -0.0855 253 255 255
0.7422 2.0031 -0.1191 252 253 252
0.7339 2.0788 -0.1751 253 255 253
0.7045 2.0834 -0.1106 253 255 253
0.7249 2.1409 -0.2275 255 255 253
0.7301 2.1120 -0.1938 253 255 253
0.7001 2.1421 -0.1425 253 255 253
0.7104 2.1608 -0.1111 252 255 251
0.7334 2.2107 -0.1855 255 255 253
0.7119 2.2280 -0.1235 253 255 253
0.7411 2.2598 -0.2149 255 255 253
0.7434 2.2596 -0.1407 253 255 252
0.7491 2.3208 -0.1897 254 255 253
0.7487 2.3562 -0.1919 254 255 253
0.7285 2.3636 -0.1435 253 255 253
0.7041 2.4289 -0.1863 255 255 253
0.7081 2.4431 -0.1232 253 255 253
0.7359 2.4712 -0.1335 233 233 232
0.7239 2.5312 -0.1669 221 219 215
0.7402 2.5926 -0.1674 253 255 253
0.7123 2.5625 -0.1105 253 255 253
0.7328 2.6191 -0.1284 253 255 253
0.7349 2.6541 -0.2063 254 255 253
0.7456 2.6743 -0.1882 253 254 251
0.7181 2.7028 -0.1985 248 247 241
0.7442 2.7031 -0.1323 254 255 253
0.7301 2.7623 -0.1734 253 254 252
0.7355 2.8207 -0.1730 252 253 250
0.7245 2.9211 -0.1869 210 214 214
0.7239 2.9608 -0.1880 253 255 253
0.7041 3.0288 -0.1824 210 212 210
0.7263 3.0664 -0.1814 235 237 237
0.7372 3.1199 -0.2140 227 230 230
0.7235 3.1138 -0.1763 240 242 240
0.7152 3.1653 -0.1832 253 255 252
0.7310 3.2026 -0.2137 253 255 253
0.7340 3.2136 -0.1696 253 255 253
0.7193 3.2912 -0.2360 252 255 253
0.7035 3.2558 -0.1726 253 255 253
0.7415 3.3817 -0.2190 253 255 253
0.7754 -3.3111 -0.1088 168 170 172
0.7560 -3.2517 -0.0340 125 135 141
0.7877 -3.2301 -0.1314 138 146 154
0.7844 -3.1608 -0.0220 132 136 137
0.7628 -3.1326 -0.1496 124 130 135
0.7838 -3.0728 -0.0889 141 139 151
0.7585 -3.0169 -0.0145 185 172 170
0.7716 -2.9948 -0.0929 131 132 139
0.7741 -2.9057 -0.1214 143 137 144
0.7685 -2.9307 -0.0969 167 170 176
0.7584 -2.9175 -0.0139 212 198 190
0.7634 -2.8577 -0.1228 136 139 149
0.7647 -2.8395 -0.1005 155 164 168
0.7645 -2.8236 -0.0109 224 210 203
0.7549 -2.7725 0.0188 169 156 151
0.7660 -2.7287 -0.1179 185 191 194
0.7767 -2.7452 -0.0053 134 128 134
0.7619 -2.6780 -0.0102 123 118 122
0.7886 -2.6718 0.0334 126 123 127
0.7809 -2.6195 -0.1108 147 157 167
0.7579 -2.6109 -0.0113 169 157 157
0.7959 -2.6086 0.0342 122 130 136
0.7938 -2.5584 0.0301 132 136 137
0.7579 -2.5261 0.0081 175 168 167
0.7709 -2.4726 -0.0927 124 133 145
0.7779 -2.4673 -0.0494 231 206 201
0.7758 -2.4274 -0.0841 136 148 158
0.7838 -2.4140 -0.0370 206 184 180
0.7657 -2.4291 0.0074 217 203 198
0.7596 -2.3693 -0.0215 222 209 209
0.7754 -2.3213 -0.0881 124 132 141
0.7807 -2.2639 -0.0970 112 120 129
0.7853 -2.2660 0.0090 234 217 211
0.7773 -2.2279 -0.0835 110 125 133
0.7908 -2.2492 -0.0348 120 112 114
0.7942 -2.2118 0.0106 224 205 197
0.7816 -2.1654 0.0089 243 216 211
0.7816 -2.1180 -0.0853 132 132 136
0.7730 -2.0565 -0.0872 129 135 142
0.7623 -2.0053 -0.0672 143 150 156
0.7562 -1.9946 -0.0865 119 124 133
0.7821 -1.9257 -0.1017 222 204 206
0.7978 -1.9303 -0.0800 124 134 139
0.7724 -1.9317 -0.0313 187 172 175
0.7630 -1.8529 -0.0698 161 156 160
0.7651 -1.8773 -0.0078 165 157 155
0.7511 -1.8004 -0.0615 122 130 136
0.7732 -1.8340 -0.0225 196 181 177
0.7594 -1.7804 -0.0181 182 172 169
0.7543 -1.7149 -0.0583 163 168 171
0.7753 -1.7271 -0.0215 170 169 167
0.7600 -1.6552 -0.0648 160 160 163
0.7618 -1.6743 -0.0126 105 111 111
0.7711 -1.6786 0.0113 134 131 137
0.7706 -1.6199 -0.0626 220 209 209
0.7721 -1.6187 -0.0308 183 168 163
0.7574 -1.5727 -0.0222 176 168 166
0.7642 -1.5136 -0.0579 226 212 207
0.7784 -1.5229 -0.0059 183 175 171
0.7698 -1.4722 -0.0305 196 194 195
0.7884 -1.4015 -0.0521 129 139 149
0.7633 -1.4172 -0.0037 235 220 213
0.7847 -1.3763 -0.0024 255 237 223
0.7761 -1.3484 -0.0618 114 131 141
0.7552 -1.3208 -0.0224 116 129 137
0.7650 -1.3063 0.0746 150 150 152
0.7532 -1.2665 -0.0607 106 126 134
0.7907 -1.2927 -0.0338 105 122 131
0.7634 -1.2721 0.0126 225 208 196
0.7620 -1.2698 0.0614 168 164 161
0.7670 -1.2007 -0.0565 104 126 132
0.7793 -1.2312 0.0430 232 210 210
0.7646 -1.1688 -0.0447 107 126 134
0.7578 -1.1479 -0.0622 113 135 143
0.7901 -1.1446 0.0376 147 146 153
0.7658 -1.0833 -0.0539 126 141 147
0.7559 -1.0538 -0.0343 115 133 141
0.7794 -1.0122 -0.0509 136 146 154
0.7633 -0.9676 -0.0599 135 145 152
0.7644 -0.9763 -0.0225 126 143 149
0.7604 -0.9567 0.0105 133 141 148
0.7726 -0.9845 0.1189 195 192 190
0.7650 -0.9146 -0.0525 120 140 146
0.7677 -0.9282 -0.0189 120 140 149
0.7828 -0.9197 0.1144 172 177 179
0.7548 -0.8542 -0.0518 109 128 137
0.7752 -0.8750 -0.0152 126 141 148
0.7930 -0.8624 0.1260 134 146 145
0.7576 -0.8060 -0.0616 108 128 137
0.7624 -0.8200 0.0928 131 139 146
0.7603 -0.7591 -0.0566 126 138 144
0.7624 -0.7957 -0.0145 131 139 145
0.7666 -0.7725 0.0951 134 151 154
0.7587 -0.7171 -0.0640 154 162 169
0.7838 -0.7232 0.0962 125 139 141
0.7758 -0.6644 -0.0290 191 194 197
0.7705 -0.6642 0.0867 203 205 204
0.7605 -0.6039 -0.0257 214 208 211
0.7658 -0.6112 0.0826 174 168 163
0.7589 -0.5666 -0.0271 213 204 206
0.7703 -0.5107 -0.0247 167 167 172
0.7632 -0.5275 0.0627 198 197 194
0.7542 -0.4746 -0.0467 144 150 155
0.7685 -0.4743 0.0610 190 195 193
0.7641 -0.4217 -0.0267 160 165 168
0.7740 -0.4460 0.0775 178 180 179
0.7528 -0.3610 -0.0576 178 176 179
0.7609 -0.3728 -0.0308 180 177 177
0.7802 -0.3764 0.0301 201 189 193
0.7789 -0.3062 -0.0358 115 131 137
0.7614 -0.3141 0.0511 179 178 183
0.7536 -0.2914 -0.0499 144 149 153
0.7650 -0.2627 0.0394 213 216 214
0.7980 -0.2536 0.0622 161 165 166
0.7609 -0.2237 -0.0535 119 134 140
0.7689 -0.2288 -0.0161 152 159 159
0.7713 -0.2206 0.0301 200 211 214
0.7533 -0.1633 -0.0360 116 131 139
0.7663 -0.1621 0.0282 196 207 206
0.7652 -0.1125 -0.0094 131 144 150
0.7633 -0.0588 -0.0518 155 160 161
0.7525 -0.0739 -0.0183 119 134 139
0.7716 -0.0059 -0.0388 142 151 155
0.7608 0.0204 -0.0209 159 166 168
0.7725 0.0365 0.0072 180 188 196
0.7640 0.0833 -0.0191 137 148 154
0.7549 0.1489 -0.0589 157 165 169
0.7657 0.1386 -0.0284 138 152 158
0.7769 0.1415 0.0003 212 207 208
0.7869 0.1711 -0.0504 213 225 227
0.7659 0.1823 -0.0339 131 142 144
0.7553 0.1728 0.0097 194 198 201
0.7538 0.2214 -0.0549 156 167 171
0.7778 0.2416 -0.0266 165 169 171
0.7519 0.2872 -0.0597 150 164 169
0.7558 0.2801 -0.0314 145 143 142
0.7584 0.3421 -0.0540 190 192 193
0.7617 0.3227 -0.0297 205 201 201
0.7610 0.3941 -0.0591 202 199 197
0.7640 0.3754 -0.0212 214 208 209
0.7586 0.4308 -0.0306 219 210 209
0.7790 0.4918 -0.0650 252 255 253
0.7942 0.4838 -0.0236 253 255 253
0.7635 0.5376 -0.0538 229 225 223
0.7683 0.5863 -0.0515 199 205 204
0.7559 0.6244 -0.0717 252 255 253
0.7556 0.6479 -0.0464 218 218 220
0.7717 0.6731 -0.0740 166 176 176
0.7814 0.6881 -0.0394 115 127 135
0.7571 0.7479 -0.0451 112 127 133
0.7571 0.7506 -0.0655 179 188 191
0.7556 0.7997 -0.0358 109 124 129
0.7541 0.8022 -0.0662 143 157 163
0.7682 0.8794 -0.0791 149 162 168
0.7676 0.8730 -0.0377 118 134 139
0.7605 0.9381 -0.0629 193 202 202
0.7653 0.9970 -0.0752 186 197 199
0.7744 1.0436 -0.0818 219 223 226
0.7563 1.0943 -0.0838 229 230 228
0.7557 1.1261 -0.0750 250 251 249
0.7585 1.1963 -0.0913 242 244 241
0.7881 1.2210 -0.1194 253 255 253
0.7529 1.2465 -0.0949 249 251 247
0.7653 1.2978 -0.1163 253 255 254
0.7565 1.2753 -0.0738 244 246 241
0.7505 1.3486 -0.1084 251 251 248
0.7544 1.3984 -0.1102 252 253 250
0.7608 1.3735 -0.0902 242 245 241
0.7608 1.4480 -0.0829 250 251 249
0.7699 1.4821 -0.1060 244 246 246
0.7763 1.5424 -0.1049 239 242 242
0.7699 1.5089 -0.0786 249 250 243
0.7703 1.5815 -0.0927 207 214 217
0.7503 1.6144 -0.1546 253 255 254
0.7980 1.6330 -0.1176 253 255 255
0.7567 1.6509 -0.1016 191 200 202
0.7693 1.7234 -0.1383 213 217 220
0.7746 1.7982 -0.1132 186 193 196
0.7527 1.8127 -0.1276 213 220 222
0.7715 1.8629 -0.1729 253 255 255
0.7696 1.8604 -0.1141 253 254 252
0.7721 1.8810 -0.0980 252 254 252
0.7987 1.9106 -0.1818 253 255 255
0.7821 1.9044 -0.1126 250 254 250
0.7511 1.9122 -0.0907 253 255 253
0.7962 1.9653 -0.1967 254 255 255
0.7998 1.9998 -0.1213 252 254 251
0.7868 1.9713 -0.0879 253 255 253
0.7563 2.0170 -0.1916 253 255 254
0.7752 2.0442 -0.1216 253 255 254
0.7587 2.1280 -0.1239 253 255 253
0.7942 2.1542 -0.1629 253 255 253
0.7678 2.2167 -0.1255 253 255 253
0.7622 2.2894 -0.1620 255 255 253
0.7996 2.3076 -0.1484 253 255 253
0.7827 2.3515 -0.1378 230 229 226
0.7809 2.4239 -0.1885 251 252 251
0.7760 2.4289 -0.1346 252 255 253
0.7505 2.4538 -0.1794 253 255 253
0.7941 2.5082 -0.1806 241 241 241
0.7823 2.5172 -0.1340 253 255 253
0.7879 2.5616 -0.2043 253 255 253
0.7833 2.5809 -0.1637 253 255 253
0.7686 2.5624 -0.1177 253 255 253
0.7919 2.6117 -0.1711 253 255 251
0.7986 2.6071 -0.1388 253 255 253
0.7722 2.6742 -0.1646 254 255 253
0.7955 2.6885 -0.1350 253 255 253
0.7772 2.7283 -0.1842 250 251 246
0.7924 2.7613 -0.1648 251 250 248
0.7687 2.7530 -0.1297 253 255 253
0.7776 2.8074 -0.1613 247 246 246
0.7922 2.8568 -0.1534 253 255 253
0.7724 2.9250 -0.1785 172 176 179
0.7930 2.9603 -0.1988 241 240 240
0.7685 3.0229 -0.2166 173 180 182
0.7761 3.0149 -0.1734 253 255 253
0.7966 3.0592 -0.2348 176 182 186
0.7928 3.0636 -0.1833 253 255 253
0.7763 3.1490 -0.2277 247 254 251
0.7959 3.1204 -0.1730 253 255 253
0.7816 3.1733 -0.1820 253 255 252
0.7950 3.2028 -0.2140 253 254 252
0.7570 3.2575 -0.2179 253 255 253
0.7551 3.2661 -0.1816 253 255 253
0.7644 3.3129 -0.1901 253 255 253
0.7924 3.3679 -0.1977 253 255 253
0.7734 3.4171 -0.2131 253 255 253
0.8117 -3.3146 -0.0465 121 131 134
0.8173 -3.2706 -0.0925 166 162 166
0.8312 -3.1967 -0.1184 139 147 154
0.8478 -3.1928 -0.0261 138 142 143
0.8091 -3.0680 -0.1264 140 146 150
0.8208 -3.0602 -0.0057 154 152 152
0.8266 -3.0247 -0.0813 138 138 146
0.8393 -2.9511 -0.1223 160 148 157
0.8163 -2.9068 -0.0852 152 155 161
0.8297 -2.8463 -0.1131 175 177 183
0.8228 -2.8103 -0.0877 136 143 152
0.8003 -2.8437 0.0020 188 178 174
0.8249 -2.7539 0.0123 133 130 134
0.8187 -2.7157 -0.0997 204 208 211
0.8193 -2.6869 -0.1100 157 158 164
0.8149 -2.6869 0.0071 134 133 137
0.8198 -2.6109 -0.0942 146 151 157
0.8313 -2.6161 0.0129 142 142 143
0.8356 -2.5864 -0.0053 157 153 154
0.8178 -2.5203 -0.0200 205 189 186
0.8255 -2.4534 -0.0832 110 123 134
0.8151 -2.4603 -0.0321 181 173 170
0.8240 -2.3664 -0.0936 118 133 141
0.8248 -2.3782 -0.0323 181 168 169
0.8081 -2.3759 0.0302 189 181 177
0.8025 -2.3086 -0.0394 149 146 149
0.8250 -2.3119 0.0359 188 178 174
0.8260 -2.2869 -0.1049 100 117 127
0.8093 -2.2846 0.0246 221 206 199
0.8224 -2.2372 -0.0902 100 119 126
0.8209 -2.1723 -0.1077 129 130 134
0.8190 -2.1476 -0.0753 121 126 129
0.8279 -2.1320 0.0253 229 209 202
0.8250 -2.0611 -0.0614 115 132 138
0.8101 -2.0765 0.0185 213 190 185
0.8148 -2.0059 -0.0659 120 132 140
0.8140 -2.0161 0.0090 133 131 132
0.8055 -1.9724 -0.0627 123 129 135
0.8149 -1.9721 0.0065 124 126 128
0.8182 -1.9419 -0.1005 249 226 227
0.8212 -1.9226 -0.0181 137 137 137
0.8049 -1.8777 -0.0706 233 208 205
0.8209 -1.8626 -0.0296 148 147 148
0.8035 -1.8103 -0.0149 152 152 152
0.8110 -1.7619 -0.0218 155 149 150
0.8016 -1.6750 -0.0566 212 206 207
0.8229 -1.6728 -0.0302 179 170 167
0.8437 -1.6691 0.0104 130 126 125
0.8185 -1.6184 -0.0236 237 213 203
0.8025 -1.5656 -0.0264 225 206 199
0.8261 -1.5796 0.0376 128 130 131
0.8098 -1.5226 -0.0309 240 229 222
0.8141 -1.4585 -0.0320 183 179 177
0.8255 -1.4253 0.0168 255 242 231
0.8354 -1.4070 0.0744 165 162 163
0.8232 -1.3522 0.0837 151 146 150
0.8270 -1.3457 -0.0454 107 123 132
0.8017 -1.3157 0.0851 189 180 181
0.8046 -1.2602 -0.0233 107 124 133
0.8192 -1.2774 0.0701 203 193 192
0.8265 -1.2284 -0.0318 122 136 146
0.8405 -1.2396 0.0418 182 180 190
0.8319 -1.1685 -0.0341 103 121 129
0.8352 -1.1300 0.1137 173 164 164
0.8065 -1.0504 -0.0622 119 137 144
0.8201 -1.0836 -0.0400 114 132 139
0.8112 -1.0204 -0.0249 128 147 152
0.8146 -1.0344 0.0463 124 132 140
0.8142 -1.0486 0.1377 191 183 177
0.8120 -0.9653 -0.0398 119 135 143
0.8462 -0.9986 0.0022 127 142 149
0.8090 -0.9958 0.0550 126 124 134
0.8086 -0.9141 -0.0334 116 135 142
0.8252 -0.9183 0.0458 168 170 174
0.8338 -0.8634 0.1188 134 145 148
0.8104 -0.8224 -0.0266 113 133 141
0.8354 -0.8274 0.1353 146 160 160
0.8050 -0.7541 -0.0533 119 137 143
0.8290 -0.7793 -0.0198 103 127 136
0.8086 -0.7581 0.1120 134 152 153
0.8479 -0.7085 -0.0430 173 175 178
0.8444 -0.7406 0.1229 129 149 151
0.8118 -0.6910 -0.0547 223 213 217
0.8466 -0.6631 -0.0240 170 174 180
0.8357 -0.6855 0.1161 138 154 155
0.8069 -0.6055 -0.0287 218 213 213
0.8150 -0.6327 0.1045 180 184 181
0.8213 -0.5700 -0.0194 194 194 198
0.8315 -0.5762 0.0761 136 141 144
0.8157 -0.5106 -0.0279 142 151 158
0.8272 -0.5316 0.0889 223 214 210
0.8142 -0.4521 -0.0282 131 142 150
0.8285 -0.4807 0.0249 250 234 235
0.8384 -0.4970 0.1025 197 190 190
0.8198 -0.4079 -0.0262 158 162 165
0.8294 -0.4212 0.0875 200 200 199
0.8103 -0.3605 -0.0282 168 169 171
0.8173 -0.3533 0.0538 203 206 208
0.8095 -0.3475 -0.0508 135 145 152
0.8117 -0.3260 -0.0245 154 162 167
0.8104 -0.3027 0.0192 184 185 186
0.8037 -0.3337 0.0677 208 209 206
0.8231 -0.2584 -0.0314 115 130 137
0.8157 -0.2184 -0.0315 118 134 140
0.8262 -0.2401 0.0665 180 187 189
0.8284 -0.1722 -0.0354 126 138 142
0.8191 -0.1601 0.0379 194 203 207
0.8031 -0.1076 -0.0273 146 154 157
0.8234 -0.1100 0.0434 169 182 188
0.8058 -0.0562 -0.0523 149 154 156
0.8257 -0.0652 0.0294 162 170 175
0.8112 -0.0173 -0.0200 162 164 165
0.8126 0.0453 -0.0327 136 143 147
0.8272 0.0164 0.0198 179 190 193
0.8018 0.0782 -0.0455 124 135 139
0.8100 0.0910 0.0186 199 213 217
0.8174 0.1343 -0.0293 161 170 173
0.8220 0.1379 0.0189 218 224 228
0.8296 0.1923 -0.0327 124 137 139
0.8034 0.2365 -0.0522 141 155 159
0.8275 0.2099 0.0090 177 174 180
0.8071 0.2937 -0.0310 150 153 152
0.8090 0.3231 -0.0560 155 162 163
0.8164 0.3761 -0.0315 182 186 186
0.8119 0.4407 -0.0342 200 198 197
0.8090 0.4968 -0.0448 219 214 212
0.8085 0.5415 -0.0468 217 217 215
0.8147 0.5965 -0.0487 182 186 187
0.8470 0.5972 0.0083 253 249 248
0.8470 0.6469 -0.0710 238 239 239
0.8133 0.6395 -0.0480 173 181 182
0.8073 0.6951 -0.0615 225 228 226
0.8103 0.7723 -0.0608 131 146 152
0.8159 0.7743 -0.0398 110 124 130
0.8030 0.8484 -0.0637 126 145 151
0.8071 0.8386 -0.0383 132 147 155
0.8021 0.8991 -0.0714 158 171 174
0.8288 0.8784 -0.0386 142 146 147
0.8143 0.9497 -0.0662 155 167 170
0.8205 0.9402 -0.0317 246 230 227
0.8085 0.9962 -0.0674 199 200 200
0.8305 1.0381 -0.0746 253 255 253
0.8092 1.0889 -0.0742 239 235 232
0.8042 1.1329 -0.0792 245 244 241
0.8468 1.1942 -0.0924 245 243 241
0.8193 1.1728 -0.0485 252 252 247
0.8058 1.2275 -0.0777 250 248 246
0.8115 1.2978 -0.0858 252 254 250
0.8225 1.3756 -0.0800 244 245 241
0.8135 1.4069 -0.1132 253 255 253
0.8198 1.4456 -0.0844 249 252 249
0.8018 1.4508 -0.1073 253 255 252
0.8287 1.4904 -0.0825 239 243 239
0.8289 1.5329 -0.0911 253 255 253
0.8447 1.5625 -0.1025 221 229 231
0.8425 1.6303 -0.0816 252 255 255
0.8032 1.6980 -0.1024 198 207 210
0.8268 1.7284 -0.1260 198 204 209
0.8059 1.7896 -0.1747 253 255 255
0.8185 1.7592 -0.1150 253 255 254
0.8218 1.8391 -0.2293 253 255 255
0.8269 1.8034 -0.1053 239 241 240
0.8079 1.8964 -0.2356 253 255 255
0.8130 1.8504 -0.1955 253 255 255
0.8152 1.8573 -0.0992 253 255 252
0.8377 1.9195 -0.2340 253 255 255
0.8320 1.9025 -0.1132 254 254 251
0.8442 1.9482 -0.0944 252 255 253
0.8029 1.9542 -0.1171 252 252 252
0.8321 2.0209 -0.1802 253 255 254
0.8259 2.0352 -0.0925 253 255 253
0.8033 2.0948 -0.1593 253 255 253
0.8352 2.1112 -0.1874 254 255 253
0.8198 2.1297 -0.1133 253 254 252
0.8450 2.1652 -0.1469 253 254 252
0.8235 2.2289 -0.1705 253 255 253
0.8186 2.2379 -0.1311 253 255 253
0.8248 2.3253 -0.1189 253 255 253
0.8091 2.3544 -0.1778 255 255 253
0.8112 2.4271 -0.1720 253 252 250
0.8418 2.4044 -0.1391 224 223 223
0.8466 2.4961 -0.1670 255 255 253
0.8404 2.4633 -0.1467 218 220 222
0.8357 2.5071 -0.1327 253 255 253
0.8409 2.5647 -0.1486 253 253 250
0.8083 2.6224 -0.2040 253 255 253
0.8081 2.6498 -0.1331 253 255 253
0.8322 2.6648 -0.1693 246 247 242
0.8364 2.6783 -0.1269 253 255 253
0.8482 2.7100 -0.1891 254 254 253
0.8345 2.7336 -0.1346 253 255 253
0.8407 2.7522 -0.1683 244 243 240
0.8240 2.8212 -0.1922 255 255 253
0.8342 2.8765 -0.2246 233 231 232
0.8429 2.8507 -0.1739 253 255 253
0.8074 2.9117 -0.1572 253 255 253
0.8475 2.9684 -0.1590 253 255 253
0.8311 3.0397 -0.2322 181 188 188
0.8474 3.0255 -0.1835 240 233 233
0.8468 3.1294 -0.1612 253 255 253
0.8421 3.1503 -0.2327 240 236 227
0.8462 3.1656 -0.1856 253 254 251
0.8394 3.2080 -0.2671 253 251 247
0.8445 3.2367 -0.2071 254 255 253
0.8148 3.2357 -0.1751 253 255 253
0.8155 3.3156 -0.2112 253 255 253
0.8321 3.3463 -0.1999 253 255 253
0.8013 3.4104 -0.2508 253 255 253
0.8275 3.4599 -0.2053 253 255 253
0.8749 -3.3431 -0.1064 131 134 142
0.8648 -3.2739 -0.0709 154 158 161
0.8935 -3.1727 -0.1071 122 130 137
0.8787 -3.1170 0.0158 155 157 160
0.8726 -3.0333 -0.0771 134 133 138
0.8703 -3.0449 0.0071 167 163 162
0.8892 -2.9563 -0.1147 151 139 143
0.8745 -2.9960 -0.0998 141 145 149
0.8709 -2.9646 0.0115 151 148 148
0.8582 -2.9153 -0.0838 143 144 152
0.8831 -2.9136 0.0087 186 177 173
0.8794 -2.8810 0.0071 166 158 155
0.8739 -2.8387 -0.1066 214 207 208
0.8789 -2.8160 -0.0001 128 123 125
0.8823 -2.8313 0.0183 161 144 136
0.8710 -2.7636 -0.0052 143 134 137
0.8989 -2.7623 0.0243 186 176 168
0.8970 -2.7174 -0.1128 157 158 164
0.8739 -2.7012 -0.0919 185 187 193
0.8676 -2.7045 -0.0076 155 152 155
0.8620 -2.6796 -0.1037 141 145 150
0.8674 -2.6501 -0.0832 174 164 170
0.8601 -2.6528 -0.0125 155 149 149
0.8698 -2.6085 -0.0144 162 151 148
0.8885 -2.5904 -0.0956 113 127 138
0.8537 -2.5515 -0.0271 176 167 163
0.8968 -2.5281 -0.0355 168 155 150
0.8662 -2.5075 0.0310 181 170 169
0.8841 -2.4568 -0.0633 114 123 133
0.8601 -2.4124 -0.0751 105 122 130
0.8835 -2.4415 0.0372 191 185 180
