ply
format ascii 1.0
element vertex 1452
property float x
property float y
property float z
property uchar red
property uchar green
property uchar blue
end_header
2.4853 0.9261 0.1376 62 64 60
2.4891 0.9338 0.1789 99 109 107
2.4912 0.9756 0.1002 74 66 63
2.4884 0.9717 0.1705 94 94 94
2.4780 1.0264 0.1287 64 63 60
2.4899 1.0128 0.1906 167 172 172
2.4906 1.0719 0.1206 86 78 79
2.4860 1.0755 0.1703 255 255 253
2.4842 1.1232 0.0874 195 183 185
2.4781 1.1194 0.1351 255 255 253
2.4770 1.1686 0.0167 244 233 229
2.4880 1.1992 0.0503 228 212 220
2.4848 1.1678 0.1227 193 189 187
2.4935 1.2302 -0.0018 193 181 182
2.4868 1.2423 0.0774 182 178 181
2.4779 1.2947 -0.0104 150 154 158
2.4937 1.2781 0.0009 137 142 145
2.4796 1.2760 0.0712 154 150 152
2.4830 1.3348 -0.0159 140 144 149
2.4785 1.3425 0.0211 133 131 134
2.4930 1.3239 0.0600 192 181 180
2.4801 1.3910 -0.0272 128 136 139
2.4838 1.3798 0.0239 135 140 140
2.4776 1.4483 -0.0565 99 115 116
2.4862 1.4388 -0.0195 134 141 145
2.4653 1.4222 0.0186 154 156 158
2.4845 1.4920 -0.0297 155 158 161
2.4827 1.5076 -0.0513 141 147 147
2.4737 1.5388 -0.0356 165 164 164
2.4908 1.5927 -0.0507 169 168 168
2.4721 1.5920 -0.0168 138 142 143
2.4779 1.6445 -0.0784 163 152 154
2.4848 1.6387 -0.0343 169 167 168
2.4868 1.6866 -0.0338 160 161 163
2.4826 1.7168 -0.0785 178 166 164
2.4993 1.7377 -0.0416 153 155 154
2.4716 1.7808 -0.0789 176 162 162
2.4817 1.8444 -0.0516 216 210 207
2.4840 1.8763 -0.1193 157 147 151
2.4649 1.8617 -0.0936 149 147 147
2.4832 1.8960 -0.0422 235 232 224
2.4771 1.9474 -0.1128 174 162 164
2.4807 1.9030 -0.0832 196 188 187
2.4833 1.9256 -0.0439 235 231 226
2.4815 1.9524 -0.0603 227 227 224
2.4758 2.0009 -0.1105 198 191 188
2.4834 2.0241 -0.0657 238 231 227
2.4744 2.0802 -0.1245 162 160 159
2.4938 2.0910 -0.0768 207 196 195
2.4590 2.1354 -0.1507 161 161 161
2.4798 2.1417 -0.0656 191 182 186
2.4734 2.1541 -0.1059 237 228 221
2.4804 2.1961 -0.0644 242 229 224
2.4665 2.2028 -0.1027 221 208 205
2.4807 2.2363 -0.0591 253 255 252
2.4828 2.2704 -0.1316 211 201 198
2.4756 2.2945 -0.0786 234 222 217
2.4731 2.3468 -0.1187 248 226 221
2.4748 2.4357 -0.1662 187 170 167
2.4803 2.4221 -0.1259 213 201 194
2.4557 2.4884 -0.1777 203 184 184
2.4812 2.5039 -0.0909 252 255 251
2.4662 2.5559 -0.1571 254 240 229
2.4850 2.5564 -0.1293 247 243 237
2.4760 2.5915 -0.0870 253 255 251
2.4676 2.6276 -0.1281 222 218 207
2.4889 2.6827 -0.1503 246 240 232
2.4872 2.6983 -0.1364 225 218 211
2.4624 2.7425 -0.1104 254 255 252
2.4893 2.7790 -0.1298 252 245 239
2.4812 2.8064 -0.1714 241 226 219
2.4808 2.8886 -0.1536 248 235 229
2.4757 2.8607 -0.1302 253 255 253
2.5097 -2.8180 -0.0624 112 124 122
2.5188 -2.7811 -0.0213 103 116 118
2.5371 -2.7085 -0.0424 110 118 120
2.5298 -2.6787 -0.0280 137 137 137
2.5359 -2.6220 -0.0508 172 168 167
2.5293 -2.6281 -0.0287 148 144 138
2.5392 -2.5801 -0.0293 123 130 130
2.5411 -2.5172 -0.0285 160 158 157
2.5408 -2.4755 -0.0204 145 143 141
2.5434 -2.4306 -0.0473 123 127 129
2.5163 -2.3738 -0.0727 156 151 150
2.5277 -2.3681 -0.0142 114 119 120
2.5293 -2.3346 -0.0276 147 143 140
2.5498 -2.3359 0.0197 182 165 157
2.5488 -2.2672 -0.0714 107 112 110
2.5372 -2.2745 -0.0316 146 144 141
2.5370 -2.2818 0.0143 182 170 160
2.5450 -2.2300 -0.0193 123 124 125
2.5183 -2.2306 0.0214 154 146 136
2.5356 -2.1797 -0.0633 99 105 107
2.5387 -2.1736 -0.0254 111 114 115
2.5155 -2.1396 -0.0270 87 96 96
2.5357 -2.1242 0.0285 152 145 138
2.5431 -2.0718 -0.0359 93 99 106
2.5202 -2.0620 0.0216 119 120 117
2.5328 -2.0244 -0.0099 94 102 104
2.5287 -1.9848 -0.0339 194 183 180
2.5393 -1.9898 0.0198 91 98 100
2.5342 -1.9316 -0.0194 146 146 144
2.5340 -1.9306 0.0280 87 99 99
2.5376 -1.8815 -0.0212 154 155 153
2.5380 -1.8240 -0.0188 131 135 133
2.5104 -1.8248 0.0500 88 100 98
2.5448 -1.7859 -0.0169 107 113 112
2.5419 -1.7319 -0.0265 85 95 96
2.5036 -1.7169 0.0850 93 104 102
2.5303 -1.6847 -0.0264 90 100 102
2.5406 -1.6718 0.0006 81 93 96
2.5422 -1.6288 0.0089 79 93 94
2.5265 -1.6258 0.1168 87 99 99
2.5479 -1.5727 -0.0046 80 92 90
2.5334 -1.5801 0.0095 79 92 92
2.5346 -1.5274 0.0113 73 86 85
2.5350 -1.5011 0.0952 112 123 124
2.5398 -1.4853 0.0320 86 93 93
2.5022 -1.4839 0.0818 100 115 118
2.5047 -1.4652 0.1267 119 130 133
2.5330 -1.4854 0.1713 111 120 116
2.5239 -1.4363 0.1871 119 123 117
2.5477 -1.3889 0.0436 72 83 85
2.5488 -1.3745 0.0974 121 132 135
2.5446 -1.3954 0.1372 108 116 122
2.5417 -1.3954 0.1919 112 124 120
2.5035 -1.3832 0.2042 119 122 119
2.5222 -1.3357 0.0715 52 58 59
2.5419 -1.3275 0.1720 128 132 138
2.5366 -1.3303 0.2211 107 115 110
2.5381 -1.2673 0.1449 92 98 95
2.5440 -1.2842 0.2029 113 123 124
2.5462 -1.2146 0.1196 104 102 100
2.5365 -1.2238 0.1728 122 109 97
2.5430 -1.2339 0.2041 102 109 108
2.5499 -1.1651 0.1117 147 121 111
2.5195 -1.1846 0.1689 88 91 85
2.5452 -1.1210 0.0874 143 112 109
2.5416 -1.1249 0.1224 137 118 110
2.5420 -1.0795 0.1200 157 133 123
2.5434 -1.0942 0.1599 75 68 64
2.5003 -1.0280 0.0926 180 155 141
2.5401 -1.0313 0.1121 160 134 125
2.5339 -0.9753 0.0928 200 170 159
2.5431 -0.9809 0.1194 159 139 127
2.5390 -0.9316 0.0997 160 129 116
2.5394 -0.9280 0.1194 145 126 107
2.5413 -0.8797 0.1121 115 91 87
2.5413 -0.8279 0.1137 169 129 121
2.5364 -0.7787 0.1197 187 145 137
2.5458 -0.7337 0.1252 214 175 165
2.5408 -0.6790 0.1282 192 152 144
2.5403 -0.6359 0.1359 135 117 113
2.5384 -0.5828 0.1532 60 63 57
2.5418 -0.5309 0.1575 53 56 48
2.5332 -0.4776 0.1409 65 68 66
2.5411 -0.4806 0.1583 49 52 45
2.5412 -0.4252 0.1433 59 57 55
2.5417 -0.4329 0.1666 45 47 39
2.5437 -0.3839 0.1707 39 41 33
2.5497 -0.3627 0.2057 45 47 47
2.5443 -0.3286 0.1769 36 37 28
2.5417 -0.2842 0.1761 32 33 25
2.5381 -0.2310 0.1787 32 32 24
2.5461 -0.1829 0.1877 33 33 24
2.5404 -0.1393 0.1972 32 33 23
2.5443 -0.1280 0.2257 30 33 21
2.5413 -0.0921 0.2196 33 33 24
2.5390 -0.0350 0.2291 34 34 23
2.5395 0.0146 0.2137 31 28 19
2.5306 0.0372 0.2922 92 87 72
2.5033 0.0313 0.3123 35 34 25
2.5413 0.0626 0.2197 41 36 26
2.5431 0.0701 0.2660 157 129 113
2.5268 0.0583 0.3035 74 62 54
2.5024 0.1216 0.2408 59 44 37
2.5373 0.1058 0.2593 213 171 155
2.5437 0.1801 0.2172 125 101 90
2.5388 0.2213 0.1946 98 76 70
2.5424 0.2675 0.1840 76 59 51
2.5276 0.2911 0.2134 167 113 124
2.5396 0.3228 0.1673 98 78 68
2.5411 0.3756 0.1648 70 59 51
2.5305 0.4299 0.1777 47 42 38
2.5351 0.4764 0.1582 63 55 50
2.5430 0.5253 0.1506 74 64 61
2.5400 0.5696 0.1363 77 64 62
2.5290 0.6219 0.1328 72 63 60
2.5418 0.6725 0.1352 74 67 64
2.5015 0.7468 0.0825 69 60 59
2.5373 0.7279 0.1235 86 73 71
2.5392 0.7855 0.0937 75 61 59
2.5406 0.7724 0.1199 92 78 74
2.5362 0.8451 0.0943 93 76 73
2.5387 0.8240 0.1210 88 73 70
2.5440 0.8736 0.0916 91 75 70
2.5350 0.8762 0.1314 76 70 67
2.5276 0.9187 0.0886 110 92 89
2.5384 0.9196 0.1399 60 62 59
2.5337 0.9224 0.1761 104 113 112
2.5422 0.9788 0.0981 69 62 58
2.5342 0.9623 0.1442 72 73 70
2.5393 0.9659 0.1882 156 159 159
2.5377 1.0322 0.1178 72 73 70
2.5400 1.0205 0.1735 163 155 151
2.5345 1.0737 0.1685 203 193 199
2.5129 1.1290 0.0748 253 239 239
2.5278 1.1312 0.1303 249 230 236
2.5450 1.1848 0.0277 194 182 183
2.5282 1.1637 0.1230 206 193 189
2.5201 1.2239 0.0193 136 134 138
2.5392 1.2177 0.0777 174 173 170
2.5446 1.2931 -0.0061 189 180 180
2.5281 1.2827 0.0606 160 159 161
2.5294 1.3326 -0.0109 148 151 154
2.5359 1.3406 0.0341 118 123 128
2.5359 1.3880 -0.0238 133 140 143
2.5361 1.3790 0.0287 174 166 166
2.5445 1.4131 -0.0578 95 116 115
2.5478 1.4395 -0.0180 169 165 165
2.5427 1.4403 0.0106 144 137 140
2.5249 1.4748 -0.0579 97 114 115
2.5227 1.4845 -0.0273 180 175 173
2.5429 1.5366 -0.0252 183 180 179
2.5338 1.5870 -0.0511 169 169 167
2.5345 1.5759 -0.0358 172 169 165
2.5267 1.6756 -0.0687 151 146 148
2.5355 1.6760 -0.0189 124 131 131
2.5267 1.7481 -0.0791 166 163 162
2.5387 1.7428 -0.0323 188 190 188
2.5350 1.7883 -0.0493 212 208 204
2.5311 1.8293 -0.0753 167 158 157
2.5242 1.8599 -0.1196 150 142 146
2.5286 1.8997 -0.0439 217 210 203
2.5450 1.8893 0.0061 188 171 153
2.5324 1.9240 -0.0751 205 199 195
2.5389 1.9392 0.0002 175 165 156
2.5204 1.9620 -0.1260 190 169 171
2.5350 1.9929 -0.0605 238 229 225
2.5302 1.9687 -0.0295 233 227 220
2.5348 2.0081 -0.1078 234 221 216
2.5308 2.0441 -0.0700 215 202 200
2.5300 2.0749 -0.1110 231 225 218
2.5403 2.0905 -0.0665 207 197 193
2.5278 2.1415 -0.1058 216 201 195
2.5181 2.1585 -0.1502 232 216 208
2.5177 2.1935 -0.1138 237 221 213
2.5385 2.1775 -0.0689 206 193 188
2.5418 2.2238 -0.1599 171 159 161
2.5151 2.2268 -0.1273 252 243 233
2.5221 2.2273 -0.0636 254 253 243
2.5233 2.2731 -0.1708 159 149 152
2.5241 2.3043 -0.1239 235 209 206
2.5390 2.3376 -0.0671 252 255 250
2.5305 2.3730 -0.1194 244 226 221
2.5277 2.4487 -0.1007 247 247 241
2.5115 2.4103 -0.0898 238 227 219
2.5076 2.4803 -0.1541 239 227 220
2.5140 2.4771 -0.1415 245 233 227
2.5252 2.4989 -0.0968 235 230 223
2.5278 2.5511 -0.1331 247 235 227
2.5302 2.5763 -0.0945 254 255 246
2.5206 2.6190 -0.1331 250 240 233
2.5205 2.6837 -0.1529 255 255 247
2.5208 2.6519 -0.0913 253 255 251
2.5374 2.7016 -0.1248 254 252 247
2.5300 2.7665 -0.1286 246 241 233
2.5201 2.8006 -0.1543 251 244 238
2.5164 2.8029 -0.1199 242 239 234
2.5162 2.8726 -0.1294 248 239 235
2.5344 2.9061 -0.1398 248 241 236
2.5764 -2.8143 -0.0683 128 133 132
2.5647 -2.8302 -0.0016 101 116 118
2.5821 -2.7040 0.0009 97 113 114
2.5965 -2.6676 -0.0671 164 158 153
2.5754 -2.6859 -0.0356 113 118 118
2.5982 -2.6242 -0.0293 137 143 144
2.5993 -2.5684 -0.0152 161 155 153
2.5714 -2.5200 -0.0027 160 149 146
2.5854 -2.4998 -0.0314 150 155 156
2.5933 -2.4254 -0.0310 146 141 142
2.5531 -2.4146 0.0012 190 175 166
2.5753 -2.3662 -0.0761 145 142 140
2.5904 -2.3968 -0.0139 144 147 148
2.5821 -2.3223 -0.0419 143 141 139
2.5819 -2.3263 0.0025 194 179 170
2.5839 -2.2723 -0.0131 132 131 129
2.5903 -2.2211 -0.0707 103 110 110
2.5906 -2.2315 -0.0356 98 106 109
2.5801 -2.2460 0.0290 201 179 166
2.5854 -2.1745 -0.0603 104 110 110
2.5862 -2.1714 -0.0236 100 108 110
2.5862 -2.1986 0.0266 182 166 153
2.5872 -2.1235 -0.0359 84 93 95
2.5849 -2.1422 0.0198 127 126 123
2.5874 -2.0767 -0.0177 91 100 101
2.5838 -2.0862 0.0133 96 104 102
2.5883 -2.0377 -0.0269 143 145 146
2.5902 -2.0388 0.0147 99 106 106
2.5815 -1.9734 -0.0259 181 177 174
2.5764 -1.9801 0.0211 100 106 106
2.5861 -1.9199 -0.0066 128 131 130
2.5835 -1.8686 -0.0171 102 112 111
2.5909 -1.8666 0.0537 107 107 105
2.5882 -1.8439 -0.0443 101 108 108
2.5513 -1.8329 0.0589 92 99 99
2.5907 -1.7750 -0.0039 85 97 97
2.5532 -1.7633 0.0610 96 107 106
2.5732 -1.7273 -0.0100 82 93 94
2.5596 -1.7218 0.0920 86 95 94
2.5758 -1.6681 -0.0136 77 90 91
2.5803 -1.6731 0.1141 120 125 121
2.5579 -1.6266 -0.0098 78 90 92
2.5900 -1.6245 0.0110 84 95 96
2.5944 -1.5913 -0.0065 78 91 91
2.5793 -1.5774 0.0068 82 93 96
2.5767 -1.5614 0.0523 115 117 118
2.5820 -1.5761 0.1353 102 112 109
2.5793 -1.5360 0.0108 91 98 98
2.5555 -1.5199 0.1604 101 110 107
2.5767 -1.4752 0.0357 116 117 114
2.5887 -1.4632 0.1783 97 108 107
2.5678 -1.4280 0.0391 75 84 84
2.5595 -1.4120 0.1435 105 123 124
2.5853 -1.3627 0.0551 51 58 57
2.5895 -1.3859 0.1697 99 112 115
2.5967 -1.3455 0.1991 113 121 121
2.5683 -1.3127 0.2237 106 113 111
2.5904 -1.2970 0.1445 101 103 101
2.5921 -1.2910 0.2132 118 125 123
2.5928 -1.2270 0.1011 129 110 105
2.5853 -1.2291 0.1853 97 90 79
2.5970 -1.2385 0.2319 85 96 100
2.5921 -1.1873 0.1341 120 99 94
2.5710 -1.1928 0.1809 77 72 63
2.5921 -1.1347 0.1182 149 124 113
2.5508 -1.1378 0.1542 87 83 79
2.5715 -1.0680 0.1318 186 160 148
2.5972 -1.0959 0.1673 77 73 73
2.5535 -1.0228 0.0924 237 210 200
2.5927 -1.0336 0.1160 174 146 134
2.5819 -0.9765 0.0954 216 205 175
2.5902 -0.9828 0.1179 186 167 147
2.5866 -0.9243 0.0946 128 108 89
2.5909 -0.9271 0.1178 194 166 136
2.5886 -0.8702 0.0964 134 105 102
2.5863 -0.8767 0.1183 157 133 106
2.5887 -0.8379 0.1125 178 149 143
2.5894 -0.7922 0.1211 174 142 137
2.5845 -0.7288 0.1247 241 218 204
2.5843 -0.6805 0.1280 180 164 157
2.5906 -0.6293 0.1345 73 81 76
2.5871 -0.5830 0.1400 65 71 70
2.5767 -0.5279 0.1325 52 59 57
2.5929 -0.5366 0.1530 49 50 43
2.5870 -0.4883 0.1355 50 52 49
2.5907 -0.4835 0.1570 43 43 36
2.5995 -0.4321 0.1385 55 58 54
2.5931 -0.4352 0.1596 42 43 36
2.5880 -0.3781 0.1665 36 38 30
2.5939 -0.3329 0.1692 36 37 29
2.5925 -0.2752 0.1649 35 36 28
2.5861 -0.2281 0.1683 35 38 32
2.5920 -0.1882 0.1759 38 34 27
2.5923 -0.1323 0.1996 36 37 27
2.5725 -0.1350 0.2222 36 40 29
2.5885 -0.0792 0.2206 36 36 26
2.5888 -0.0333 0.1975 37 35 25
2.5907 0.0083 0.1997 40 35 25
2.5619 0.0261 0.2676 152 122 116
2.5716 0.0247 0.3265 39 38 31
2.5875 0.0670 0.2312 44 38 28
2.5771 0.1191 0.2333 101 77 68
2.5908 0.1061 0.2509 188 153 135
2.5899 0.1862 0.1790 157 120 112
2.5918 0.1688 0.2145 135 102 92
2.5855 0.2294 0.1868 93 71 63
2.5871 0.2025 0.2139 92 67 62
2.5925 0.2676 0.1763 95 75 69
2.5961 0.3258 0.1600 53 41 38
2.5877 0.3049 0.2242 71 41 41
2.5885 0.3681 0.1616 54 46 40
2.5785 0.4239 0.1593 58 50 46
2.5875 0.4714 0.1508 70 60 56
2.5927 0.5211 0.1347 45 37 30
2.5927 0.5705 0.1353 88 74 72
2.5851 0.5543 0.1864 101 97 92
2.5888 0.6184 0.1320 63 55 51
2.5852 0.6715 0.1343 81 67 64
2.5890 0.7233 0.1322 80 66 63
2.5897 0.7838 0.0914 79 61 61
2.5882 0.7775 0.1237 89 72 70
2.5791 0.8263 0.0921 102 75 76
2.5888 0.8261 0.1250 88 74 70
2.5907 0.8673 0.0861 118 91 88
2.5885 0.8742 0.1313 68 62 59
2.5900 0.8835 0.1608 52 54 52
2.5759 0.8632 0.2047 69 74 72
2.5837 0.9220 0.0869 93 74 72
2.5849 0.9205 0.1403 59 62 59
2.5883 0.9237 0.1797 113 119 117
2.5921 0.9817 0.0976 62 56 53
2.5787 0.9681 0.1458 83 82 78
2.5865 0.9681 0.1940 166 168 168
2.5877 1.0335 0.1285 64 64 60
2.5867 1.0211 0.1940 169 170 171
2.5585 1.0836 0.1189 153 147 151
2.5904 1.0701 0.1697 151 147 146
2.5821 1.1301 0.0616 251 246 245
2.5912 1.1274 0.1154 186 177 185
2.5893 1.1699 0.0317 151 151 156
2.5542 1.1607 0.0805 172 160 166
2.5832 1.1747 0.1071 201 189 187
2.5912 1.2227 0.0045 148 145 148
2.5819 1.2326 0.0828 174 168 172
2.5989 1.2815 0.0064 181 178 180
2.5810 1.2760 0.0743 183 176 173
2.5755 1.3247 -0.0142 173 169 173
2.5774 1.3406 0.0226 203 200 192
2.5880 1.3976 -0.0171 189 181 178
2.5862 1.3903 0.0120 183 176 178
2.5820 1.4065 -0.0579 96 115 115
2.5768 1.4367 -0.0246 167 167 163
2.5719 1.4620 -0.0545 102 119 121
2.5821 1.4861 -0.0299 184 182 177
2.5755 1.5076 -0.0527 128 136 137
2.5863 1.5449 -0.0389 197 185 181
2.5924 1.5907 -0.0366 170 166 166
2.5834 1.6457 -0.0224 192 186 185
2.5810 1.6840 -0.0609 146 141 145
2.5778 1.6862 -0.0043 172 163 161
2.5852 1.7296 -0.0786 144 149 150
2.5758 1.7499 -0.0098 217 207 196
2.5763 1.7874 -0.0806 215 201 196
2.5841 1.7826 -0.0344 191 188 186
2.5837 1.8381 -0.0423 202 192 190
2.5813 1.8797 -0.1234 216 191 189
2.5799 1.8757 -0.0903 225 208 205
2.5814 1.8711 -0.0275 233 226 219
2.5737 1.9708 -0.1129 224 203 199
2.5774 1.9742 -0.0692 231 219 210
2.5839 1.9626 -0.0385 249 240 241
2.5756 1.9517 0.0074 119 123 124
2.5776 2.0348 -0.1043 227 213 206
2.5860 2.0452 -0.0719 221 204 199
2.5648 2.0347 -0.0205 153 152 148
2.5745 2.0964 -0.0673 202 191 187
2.5799 2.0957 -0.0380 158 156 152
2.5611 2.1425 -0.1598 255 254 244
2.5705 2.1091 -0.1058 224 207 200
2.5758 2.1281 -0.0675 217 206 202
2.5616 2.1481 -0.0337 253 255 251
2.5658 2.1788 -0.1129 247 232 228
2.5921 2.1746 -0.0753 237 222 215
2.5615 2.2262 -0.1522 247 229 224
2.5818 2.2422 -0.0707 241 238 229
2.5757 2.2554 -0.1235 210 183 183
2.5945 2.2905 -0.0988 220 203 196
2.5826 2.3059 -0.1461 200 177 178
2.5822 2.3306 -0.0814 238 229 219
2.5734 2.3584 -0.1361 231 205 200
2.5761 2.4192 -0.1295 250 232 226
2.5816 2.4074 -0.0898 244 237 231
2.5922 2.4725 -0.1225 251 229 223
2.5711 2.4618 -0.0976 241 234 227
2.5763 2.5056 -0.1214 247 230 223
2.5770 2.5011 -0.0925 244 241 229
2.5687 2.5678 -0.1330 245 234 226
2.5806 2.5504 -0.0917 246 242 230
2.5844 2.6144 -0.1210 242 232 224
2.5758 2.6293 -0.0958 255 253 245
2.5656 2.6864 -0.1522 254 255 246
2.5768 2.6576 -0.1144 242 229 222
2.5761 2.7283 -0.1173 240 234 228
2.5699 2.7547 -0.1398 250 240 234
2.5762 2.8100 -0.1467 247 241 234
2.5770 2.8561 -0.1257 252 248 239
2.5755 2.9038 -0.1259 245 238 233
2.6435 -2.8123 -0.0480 110 120 124
2.6385 -2.7977 -0.0635 123 125 125
2.6074 -2.7931 -0.0383 116 125 126
2.6412 -2.7770 0.0082 104 113 115
2.6262 -2.7176 -0.0136 111 117 120
2.6119 -2.7276 0.0087 95 110 112
2.6358 -2.6728 -0.0599 159 158 158
2.6479 -2.6896 -0.0097 112 118 118
2.6494 -2.6315 -0.0325 150 151 150
2.6393 -2.5698 -0.0170 181 170 169
2.6135 -2.5767 0.0135 114 120 124
2.6292 -2.4774 -0.0279 176 169 165
2.6423 -2.3726 -0.0317 156 153 149
2.6234 -2.3353 -0.0705 127 127 127
2.6363 -2.3258 -0.0415 134 131 130
2.6091 -2.2658 -0.0624 111 115 116
2.6288 -2.2726 -0.0427 110 116 116
2.6294 -2.2675 0.0005 131 131 130
2.6464 -2.1795 -0.0670 105 110 111
2.6171 -2.1715 -0.0411 88 99 99
2.6306 -2.1634 0.0079 93 99 102
2.6360 -2.1321 -0.0192 94 102 101
2.6365 -2.0677 -0.0157 99 105 105
2.6423 -2.0847 0.0109 90 100 100
2.6335 -2.0297 -0.0180 112 117 116
2.6303 -1.9768 -0.0286 114 114 114
2.6393 -1.9869 0.0190 118 120 117
2.6367 -1.9310 -0.0315 125 129 129
2.6373 -1.9355 0.0293 116 116 112
2.6141 -1.8878 -0.0242 168 161 159
2.6197 -1.8340 -0.0175 84 97 98
2.6449 -1.8120 0.0703 135 130 128
2.6161 -1.7860 -0.0204 82 98 99
2.6003 -1.7857 0.0830 125 128 123
2.6315 -1.7211 -0.0146 82 93 94
2.6085 -1.7083 0.0871 108 118 112
2.6287 -1.6783 -0.0067 84 94 95
2.6199 -1.6576 0.1306 102 103 100
2.6440 -1.6037 -0.0117 97 106 108
2.6336 -1.6248 0.0204 93 102 102
2.6409 -1.5719 -0.0062 102 110 107
2.6191 -1.5907 0.0147 89 96 98
2.6452 -1.5864 0.0515 122 125 121
2.6396 -1.5860 0.1461 137 138 135
2.6373 -1.5404 0.0092 122 122 121
2.6105 -1.5157 0.0667 108 115 113
2.6368 -1.5104 0.1815 132 132 128
2.6425 -1.4794 0.0321 120 120 117
2.6239 -1.4912 0.0544 91 98 99
2.6041 -1.4748 0.1173 101 116 117
2.6337 -1.4247 0.0283 66 72 71
2.6245 -1.4295 0.0695 93 106 108
2.6090 -1.4455 0.1724 96 101 99
2.6434 -1.4132 0.2107 113 120 116
2.6129 -1.3472 0.1092 53 64 63
2.6223 -1.3278 0.1687 130 136 143
2.6387 -1.3414 0.2214 99 107 106
2.6356 -1.2706 0.1103 114 109 104
2.6440 -1.2813 0.1734 130 122 116
2.6128 -1.2744 0.2326 83 98 102
2.6187 -1.2224 0.1262 146 119 105
2.6311 -1.2227 0.2182 89 83 73
2.6253 -1.1763 0.0798 234 196 187
2.6412 -1.1754 0.1139 169 142 130
2.6023 -1.1917 0.1558 76 74 63
2.6370 -1.1986 0.2038 90 102 104
2.6016 -1.1179 0.0737 194 159 150
2.6376 -1.1319 0.1136 158 134 127
2.6185 -1.1375 0.1558 87 83 79
2.6245 -1.0795 0.0806 255 224 216
2.6480 -1.0912 0.1109 197 167 151
2.6425 -1.0363 0.0903 250 240 220
2.6420 -1.0348 0.1147 171 143 130
2.6257 -0.9752 0.0885 217 182 146
2.6397 -0.9816 0.1150 208 177 159
2.6392 -0.9324 0.1209 189 159 142
2.6366 -0.8918 0.0934 168 144 118
2.6446 -0.8840 0.1219 151 124 111
2.6334 -0.8336 0.1161 203 174 166
2.6402 -0.7830 0.1202 210 180 172
2.6488 -0.7333 0.1346 113 96 89
2.6421 -0.6796 0.1248 94 92 90
2.6391 -0.6320 0.1398 54 55 49
2.6466 -0.5801 0.1343 52 55 51
2.6444 -0.5317 0.1387 56 59 57
2.6368 -0.4802 0.1344 53 53 50
2.6415 -0.4810 0.1543 46 46 38
2.6467 -0.4211 0.1340 55 59 54
2.6422 -0.4303 0.1605 42 43 34
2.6173 -0.3857 0.1437 46 50 46
2.6417 -0.3799 0.1621 38 40 33
2.6494 -0.3312 0.1667 35 36 28
2.6447 -0.2940 0.1485 42 40 35
2.6449 -0.2839 0.1703 35 35 27
2.6383 -0.2388 0.1657 35 34 27
2.6440 -0.1803 0.1728 39 39 31
2.6408 -0.1287 0.1926 38 39 29
2.6406 -0.0813 0.1914 46 42 32
2.6189 -0.0753 0.2262 43 45 33
2.6365 -0.0229 0.1838 53 51 42
2.6211 0.0364 0.1790 36 31 23
2.6317 0.0147 0.2231 91 78 66
2.6481 0.0649 0.1770 36 32 24
2.6392 0.0673 0.2133 90 79 65
2.6373 0.1122 0.2186 120 98 85
2.6381 0.1648 0.2112 127 100 90
2.6399 0.2176 0.1839 118 95 86
2.6455 0.2674 0.1730 91 75 70
2.6397 0.3207 0.1610 66 58 55
2.6419 0.3718 0.1594 63 54 50
2.6408 0.4213 0.1494 81 68 62
2.6484 0.4034 0.1697 94 79 73
2.6343 0.4704 0.1475 64 54 50
2.6407 0.5393 0.1176 66 50 46
2.6412 0.5177 0.1501 82 68 63
2.6426 0.5661 0.1319 94 77 74
2.6363 0.6256 0.1279 86 73 69
2.6453 0.6731 0.1303 100 82 78
2.6346 0.7179 0.1336 94 74 70
2.6446 0.7930 0.0915 154 116 118
2.6380 0.7790 0.1249 98 80 75
2.6378 0.8393 0.0934 121 85 85
2.6397 0.8216 0.1207 82 69 66
2.6262 0.8323 0.1510 71 61 61
2.6420 0.8758 0.0889 82 59 58
2.6401 0.8757 0.1285 69 62 58
2.6458 0.8778 0.1646 51 53 48
2.6411 0.9354 0.0911 63 53 48
2.6431 0.9216 0.1422 59 58 55
2.6395 0.9161 0.1807 108 112 110
2.6013 0.9453 0.2107 220 207 206
2.6340 0.9832 0.1010 52 50 46
2.6436 0.9719 0.1953 159 158 158
2.6433 0.9782 0.2148 175 172 172
2.6401 1.0400 0.0988 62 62 59
2.6389 1.0236 0.1448 159 150 147
2.6424 1.0213 0.1969 161 164 165
2.6274 1.0880 0.1088 220 203 201
2.6373 1.0695 0.1706 176 174 174
2.6331 1.1260 0.0708 236 220 221
2.6235 1.1098 0.1247 252 245 244
2.6413 1.1809 0.0170 190 186 182
2.6185 1.1695 0.1223 191 182 181
2.6430 1.2376 0.0045 222 207 207
2.6355 1.2315 0.0730 192 182 179
2.6305 1.2939 -0.0099 195 192 190
2.6146 1.2881 0.0596 161 154 150
2.6423 1.3406 -0.0182 161 162 160
2.6314 1.3399 0.0105 201 190 188
2.6390 1.3901 -0.0205 175 167 163
2.6337 1.3722 0.0302 180 168 168
2.6104 1.3560 0.0533 200 182 181
2.6295 1.4445 -0.0223 201 194 189
2.6219 1.4241 0.0138 204 195 189
2.6293 1.4868 -0.0367 252 239 229
2.6215 1.5485 -0.0554 125 134 135
2.6346 1.5373 -0.0292 198 189 185
2.6260 1.5951 -0.0503 170 167 164
2.6358 1.5893 -0.0206 198 195 192
2.6305 1.6481 -0.0532 179 170 169
2.6401 1.6410 -0.0205 183 180 174
2.6382 1.6915 -0.0358 183 176 175
2.6300 1.7362 -0.0850 144 136 139
2.6352 1.7411 -0.0500 171 166 167
2.6155 1.7909 -0.0799 196 189 183
2.6249 1.7889 -0.0474 189 181 178
2.6241 1.8470 -0.0837 236 218 211
2.6372 1.8269 -0.0321 208 193 190
2.6352 1.8364 0.0025 178 169 163
2.6335 1.8986 -0.0491 236 221 218
2.6214 1.8908 0.0023 132 134 133
2.6253 1.9270 -0.0798 207 193 187
2.6374 1.9401 -0.0208 210 199 195
2.6101 1.9644 -0.1182 250 244 235
2.6332 1.9942 -0.0734 227 210 202
2.6166 1.9875 -0.0223 181 174 177
2.6319 2.0516 -0.1071 240 215 209
2.6253 2.0748 -0.0793 230 209 199
2.6000 2.1218 -0.1492 255 244 237
2.6209 2.1410 -0.0783 198 182 178
2.6269 2.1045 -0.0370 161 161 159
2.6261 2.1975 -0.1164 212 190 187
2.6355 2.1760 -0.0799 196 190 185
2.6343 2.2203 -0.1423 210 186 185
2.6256 2.2962 -0.1054 228 209 203
2.6363 2.2752 -0.0739 233 213 209
2.6045 2.3366 -0.1534 167 150 158
2.6442 2.3147 -0.1407 201 178 181
2.6293 2.3476 -0.0648 252 254 246
2.6196 2.3750 -0.1152 255 253 241
2.6331 2.4231 -0.0931 244 233 225
2.6144 2.4544 -0.1191 255 240 234
2.6490 2.5039 -0.1192 254 253 240
2.6362 2.5225 -0.0910 236 228 220
2.6270 2.5601 -0.1252 249 235 228
2.6287 2.5891 -0.0925 242 229 220
2.6301 2.6160 -0.1281 250 241 232
2.6168 2.6646 -0.1329 248 238 228
2.6335 2.7062 -0.1098 239 224 218
2.6178 2.7567 -0.1239 245 237 230
2.6266 2.8100 -0.1313 255 244 239
2.6274 2.8594 -0.1288 247 228 221
2.6819 -2.7554 -0.0932 153 144 143
2.6674 -2.7713 -0.0484 106 115 118
2.6973 -2.7237 -0.0348 113 119 119
2.6791 -2.6860 -0.0274 105 115 114
2.6818 -2.6286 -0.0521 150 148 148
2.6855 -2.6400 0.0304 105 112 109
2.6519 -2.5632 -0.0412 162 158 152
2.6570 -2.5924 0.0309 98 110 108
2.6905 -2.5311 -0.0623 165 158 157
2.6910 -2.5340 0.0039 107 115 116
2.6917 -2.4881 -0.0397 206 193 191
2.6713 -2.4256 -0.0251 154 147 145
2.6868 -2.3684 -0.0455 147 144 143
2.6791 -2.3363 -0.0235 130 131 131
2.6901 -2.2673 -0.0391 114 119 120
2.6733 -2.2271 -0.0438 100 106 107
2.6852 -2.1598 -0.0621 101 108 109
2.6826 -2.1708 -0.0359 91 101 102
2.6956 -2.1864 0.0257 96 107 107
2.6845 -2.1158 -0.0271 91 101 101
2.6862 -2.0615 -0.0300 82 93 93
2.6819 -2.0834 0.0169 111 120 116
2.6823 -2.0465 -0.0505 98 103 101
2.6906 -2.0123 -0.0284 92 101 102
2.6630 -2.0334 0.0117 85 95 97
2.6847 -1.9726 -0.0244 81 95 97
2.6939 -1.9267 -0.0292 80 94 95
2.6957 -1.9267 0.0433 102 107 105
2.6878 -1.8741 -0.0283 82 96 98
2.6957 -1.8764 0.0351 140 147 144
2.6863 -1.8269 -0.0189 81 95 97
2.6880 -1.7859 -0.0089 92 103 104
2.6693 -1.7604 0.0872 121 122 117
2.6938 -1.7192 -0.0278 82 91 93
2.6823 -1.7341 0.0227 85 96 97
2.6502 -1.7435 0.0748 102 112 108
2.6760 -1.6665 -0.0154 86 94 97
2.6818 -1.6741 0.0118 91 100 99
2.6822 -1.6765 0.0556 90 103 105
2.6972 -1.6232 -0.0211 121 123 123
2.6842 -1.6301 0.0019 100 106 107
2.6841 -1.6268 0.0846 96 109 114
2.6806 -1.5805 0.0046 121 123 122
2.6850 -1.5747 0.1253 119 124 120
2.6889 -1.5478 0.0349 94 102 97
2.6858 -1.5318 0.0515 159 155 152
2.6790 -1.4747 0.0346 122 123 118
2.6878 -1.4822 0.0778 115 116 115
2.6692 -1.4798 0.1293 112 123 123
2.6841 -1.4721 0.1901 137 133 125
2.6768 -1.4379 0.0274 57 64 62
2.6654 -1.4288 0.0661 105 121 120
2.6588 -1.4197 0.1340 98 108 112
2.6512 -1.4380 0.1790 104 113 112
2.6708 -1.3954 0.0438 54 64 63
2.6899 -1.3636 0.1066 48 56 57
2.6599 -1.3639 0.1687 115 129 131
2.6885 -1.2807 0.1754 127 119 115
2.6739 -1.2959 0.2303 108 111 109
2.6801 -1.2281 0.1317 118 103 91
2.6823 -1.2373 0.1818 106 97 85
2.6807 -1.2163 0.2244 125 121 112
2.6509 -1.1522 0.0819 216 190 183
2.6774 -1.1900 0.1343 80 71 60
2.6752 -1.1929 0.1751 67 69 61
2.6775 -1.1626 0.2294 89 86 91
2.6934 -1.1282 0.1118 212 182 169
2.6724 -1.1377 0.1706 105 95 94
2.6817 -1.0800 0.1346 207 183 171
2.6803 -1.0319 0.0860 214 196 188
2.6911 -1.0328 0.1180 205 172 156
2.6966 -0.9802 0.0913 255 232 222
2.6908 -0.9856 0.1171 217 181 164
2.6711 -0.9385 0.0896 169 139 109
2.6901 -0.9249 0.1243 167 132 116
2.6863 -0.8848 0.0991 179 155 149
2.6952 -0.8820 0.1238 149 121 109
2.6933 -0.8391 0.1132 214 184 175
2.6928 -0.7828 0.1190 249 228 215
2.6787 -0.7339 0.1175 186 161 155
2.6890 -0.6803 0.1354 61 62 54
2.6764 -0.6282 0.1254 59 62 57
2.6919 -0.5815 0.1305 54 57 52
2.6937 -0.5332 0.1338 51 53 48
2.6934 -0.4793 0.1294 47 49 44
2.6939 -0.4817 0.1529 43 44 36
2.6875 -0.4299 0.1318 50 53 48
2.6827 -0.4296 0.1561 40 41 34
2.6979 -0.3812 0.1383 40 42 37
2.6949 -0.3802 0.1609 36 37 28
2.6726 -0.3370 0.1428 37 40 32
2.6913 -0.3362 0.1657 36 36 28
2.6940 -0.2817 0.1456 44 43 38
2.6935 -0.2847 0.1690 33 35 26
2.6914 -0.2342 0.1626 39 38 30
2.6912 -0.1781 0.1678 39 39 31
2.6858 -0.1301 0.1769 53 48 38
2.6933 -0.0763 0.1741 46 40 33
2.6921 -0.0292 0.1775 88 69 60
2.6896 0.0144 0.1830 63 50 43
2.6891 0.0693 0.1687 36 32 23
2.6885 0.0674 0.2096 108 92 77
2.6747 0.1074 0.1801 41 37 30
2.6904 0.1133 0.2085 135 115 102
2.6911 0.1643 0.2059 143 119 109
2.6937 0.2230 0.1824 130 107 101
2.6671 0.2121 0.2042 126 103 92
2.6886 0.2757 0.1692 115 97 91
2.6902 0.3256 0.1586 75 60 58
2.6923 0.3780 0.1449 79 67 63
2.6947 0.3715 0.1646 85 74 67
2.6919 0.4201 0.1467 82 69 63
2.6926 0.4014 0.1666 92 79 71
2.6913 0.4816 0.1302 65 49 45
2.6920 0.5299 0.1329 81 61 55
2.6899 0.5739 0.1303 72 54 51
2.6881 0.6240 0.1290 86 73 70
2.6941 0.6716 0.1297 83 68 64
2.6820 0.7385 0.0886 66 49 45
2.6866 0.7228 0.1314 93 73 71
2.6863 0.7763 0.1220 100 80 75
2.6808 0.8239 0.0935 135 104 100
2.6852 0.8264 0.1253 99 81 77
2.6843 0.8275 0.1511 113 98 91
2.6981 0.8726 0.0920 89 73 71
2.6943 0.8758 0.1256 53 51 48
2.6909 0.8752 0.1644 64 65 61
2.6951 0.9203 0.0856 91 75 71
2.6878 0.9222 0.1358 63 61 56
2.6904 0.9212 0.1831 117 123 122
2.6661 0.9240 0.2136 198 188 185
2.6664 0.9813 0.1055 60 59 55
2.6752 0.9756 0.1696 110 119 123
2.6925 0.9673 0.2136 168 167 168
2.6790 1.0223 0.1241 65 66 63
2.6875 1.0196 0.1898 161 164 164
2.6810 1.0807 0.1317 170 156 161
2.6921 1.0569 0.1781 179 178 179
2.6621 1.1395 0.0657 154 162 171
2.6834 1.1150 0.1447 183 176 175
2.6803 1.1683 0.0333 201 188 192
2.6828 1.1722 0.1181 190 177 178
2.6820 1.2217 0.0056 216 206 202
2.6861 1.2278 0.0835 189 178 175
2.6800 1.2883 -0.0167 194 192 183
2.6966 1.2798 0.0054 230 221 214
2.6894 1.2704 0.0621 189 177 175
2.6725 1.3409 -0.0158 203 194 191
2.6815 1.3432 0.0065 216 207 197
2.6815 1.3912 -0.0098 193 185 180
2.6832 1.4372 -0.0159 198 189 184
2.6806 1.4932 -0.0159 194 183 180
2.6540 1.4621 0.0099 207 191 190
2.6815 1.5276 -0.0372 144 149 149
2.6884 1.5797 -0.0415 179 177 174
2.6824 1.6392 -0.0377 160 159 158
2.6872 1.6862 -0.0539 203 192 186
2.6849 1.6913 -0.0210 164 166 164
2.6599 1.7061 -0.0798 160 145 150
2.6814 1.7342 -0.0499 186 177 172
2.6732 1.7725 -0.0314 203 195 189
2.6815 1.8290 -0.0893 165 155 156
2.6776 1.8230 -0.0312 191 183 179
2.6736 1.8986 -0.0534 199 190 187
2.6856 1.8829 -0.0018 147 145 143
2.6929 1.9033 -0.0851 198 181 178
2.6841 1.9420 -0.0254 186 178 175
2.6887 1.9508 -0.0875 211 188 187
2.6788 1.9840 -0.0333 137 139 140
2.6778 2.0216 -0.0907 237 207 200
2.6876 2.0327 -0.0391 144 146 145
2.6683 2.0732 -0.1321 240 212 206
2.6817 2.0961 -0.0768 226 217 209
2.6513 2.0662 -0.0261 158 156 154
2.6894 2.1408 -0.0649 231 228 221
2.6659 2.1721 -0.1250 254 225 221
2.6921 2.1896 -0.0767 200 191 186
2.6843 2.2069 -0.1219 220 197 192
2.6709 2.2303 -0.0733 235 227 219
2.6837 2.2838 -0.1132 229 209 204
2.6658 2.3147 -0.1951 254 230 224
2.6698 2.3014 -0.0648 248 247 232
2.6586 2.3848 -0.1229 252 245 234
2.6814 2.3840 -0.0825 241 223 215
2.6786 2.4397 -0.1986 195 167 170
2.6833 2.4424 -0.0841 241 237 226
2.6877 2.4902 -0.0842 249 249 237
2.6848 2.5115 -0.1788 237 211 204
2.6818 2.5268 -0.1227 251 243 232
2.6835 2.5543 -0.0934 251 245 235
2.6666 2.6065 -0.1191 255 254 244
2.6791 2.6120 -0.0860 239 224 218
2.6726 2.6587 -0.1325 250 244 229
2.6795 2.6519 -0.0947 238 226 219
2.6813 2.7078 -0.1131 245 227 223
2.6780 2.7165 -0.0843 219 209 204
2.6707 2.7828 -0.1229 255 255 249
2.6691 2.7731 -0.0871 235 224 218
2.6918 2.8389 -0.1021 241 237 230
2.7406 -2.7757 -0.0405 97 108 111
2.7391 -2.7768 0.0129 130 132 132
2.7006 -2.7300 0.0114 122 125 124
2.7277 -2.6951 -0.1059 151 142 140
2.7363 -2.6756 -0.0377 117 123 123
2.7281 -2.6159 -0.0514 158 152 152
2.7081 -2.6191 -0.0375 162 157 154
2.7345 -2.5684 -0.0687 157 155 153
2.7002 -2.5530 -0.0416 169 169 165
2.7271 -2.5968 0.0232 105 116 117
2.7269 -2.5125 -0.0378 165 168 164
2.7381 -2.4787 -0.0486 157 154 154
2.7239 -2.4224 -0.0236 187 185 183
2.7186 -2.3752 -0.0201 97 106 108
2.7309 -2.3175 -0.0207 152 151 150
2.7289 -2.2707 -0.0362 105 110 111
2.7144 -2.2464 -0.0662 84 94 93
2.7367 -2.2313 -0.0358 92 103 104
2.7347 -2.2275 0.0323 112 119 116
2.7325 -2.1801 -0.0304 92 102 104
2.7115 -2.1434 -0.0650 107 112 113
2.7437 -2.1176 -0.0204 82 94 94
2.7328 -2.1239 0.0303 117 123 120
2.7225 -2.0529 -0.0600 88 95 95
2.7478 -2.0649 -0.0310 85 95 95
2.7284 -2.0104 -0.0574 91 100 102
2.7389 -2.0074 -0.0274 91 100 100
2.7431 -2.0034 0.0437 121 126 122
2.7267 -1.9765 -0.0524 90 99 99
2.7367 -1.9743 -0.0189 97 106 106
2.7474 -1.9272 -0.0133 95 105 104
2.7369 -1.8706 -0.0181 97 107 107
2.7345 -1.8243 -0.0290 85 97 97
2.7405 -1.8476 0.0662 98 108 105
2.7322 -1.7740 -0.0226 83 95 96
2.7167 -1.7879 0.0762 89 100 99
2.7489 -1.7346 0.0048 89 99 98
2.7154 -1.7440 0.1038 95 103 100
2.7389 -1.6758 0.0146 100 109 108
2.7479 -1.6261 -0.0147 122 123 123
2.7298 -1.6039 0.0110 102 107 101
2.7250 -1.5760 -0.0153 118 122 119
2.7266 -1.5626 0.0758 96 103 105
2.7473 -1.5568 0.1525 110 115 109
2.7414 -1.5364 0.0073 127 125 121
2.7420 -1.5453 0.1067 107 120 124
2.7004 -1.5355 0.1522 79 88 87
2.7419 -1.4822 0.0288 90 94 93
2.7218 -1.4823 0.0890 115 117 116
2.7241 -1.4774 0.1308 111 122 125
2.7236 -1.4228 0.0431 54 61 59
2.7058 -1.4320 0.1441 117 124 124
2.7244 -1.4320 0.1760 108 115 115
2.7386 -1.3705 0.1228 47 57 59
2.7244 -1.3812 0.1801 121 131 131
2.7238 -1.3369 0.1916 121 126 127
2.7271 -1.3435 0.2374 93 98 96
2.7492 -1.2631 0.1204 211 177 161
2.7425 -1.2779 0.1838 162 142 124
2.7314 -1.2655 0.2361 98 105 104
2.7239 -1.2187 0.1467 130 114 98
2.7464 -1.2390 0.1914 137 137 135
2.7359 -1.2300 0.2115 129 116 101
2.7379 -1.2066 0.2528 151 143 131
2.7372 -1.1734 0.1136 211 176 166
2.7389 -1.1892 0.1878 129 120 117
2.7467 -1.1975 0.2163 133 117 100
2.7415 -1.1333 0.1279 222 199 186
2.7386 -1.0809 0.1117 213 192 178
2.7324 -1.0237 0.0833 241 223 210
2.7411 -1.0233 0.1144 229 202 187
2.7406 -0.9790 0.1149 222 190 175
2.7402 -0.9289 0.0866 197 170 160
2.7398 -0.9328 0.1181 183 150 137
2.7487 -0.8832 0.1243 145 122 112
2.7417 -0.8275 0.0986 209 176 170
2.7427 -0.8292 0.1321 125 106 97
2.7384 -0.7788 0.1169 107 101 98
2.7424 -0.7302 0.1182 69 71 68
2.7285 -0.6818 0.1206 64 67 64
2.7360 -0.6319 0.1279 63 66 61
2.7421 -0.5843 0.1273 57 59 55
2.7363 -0.5311 0.1353 51 53 49
2.7477 -0.4790 0.1378 48 49 44
2.7367 -0.4267 0.1332 49 49 45
2.7352 -0.4355 0.1535 42 42 35
2.7473 -0.3832 0.1306 43 44 40
2.7437 -0.3831 0.1597 40 40 32
2.7361 -0.3405 0.1422 41 43 36
2.7399 -0.3274 0.1620 41 40 31
2.7402 -0.2870 0.1416 41 40 34
2.7451 -0.2825 0.1604 42 41 33
2.7397 -0.2305 0.1658 40 41 32
2.7354 -0.1783 0.1612 50 46 38
2.7295 -0.1278 0.1661 40 37 30
2.7331 -0.0795 0.1678 93 71 63
2.7399 -0.0311 0.1680 110 83 74
2.7394 0.0267 0.1717 85 64 57
2.7377 0.0737 0.1622 50 43 35
2.7472 0.0735 0.2021 161 137 120
2.7222 0.1315 0.1705 45 41 31
2.7347 0.1220 0.2033 163 140 125
2.7464 0.1816 0.1890 77 67 57
2.7360 0.1687 0.2016 153 128 115
2.7416 0.2297 0.1777 154 126 120
2.7432 0.2716 0.1686 131 111 105
2.7397 0.3318 0.1484 82 72 68
2.7431 0.3156 0.1653 104 88 82
2.7437 0.3796 0.1456 71 60 56
2.7452 0.3610 0.1636 86 71 65
2.7376 0.4155 0.1439 82 69 65
2.7406 0.4699 0.1379 75 62 58
2.7388 0.5180 0.1386 76 66 61
2.7394 0.5724 0.1234 67 56 52
2.7374 0.6073 0.0678 89 84 83
2.7353 0.6268 0.1272 87 72 69
2.7430 0.6718 0.1301 83 69 64
2.7496 0.7215 0.0864 107 82 76
2.7436 0.7263 0.1313 90 71 67
2.7178 0.7827 0.0911 92 64 60
2.7408 0.7706 0.1157 109 89 84
2.7312 0.8268 0.0914 100 76 72
2.7376 0.8192 0.1231 93 76 73
2.7383 0.8807 0.0938 71 56 57
2.7378 0.8650 0.1248 73 63 60
2.7388 0.8677 0.1661 67 71 68
2.7351 0.9206 0.0951 66 53 49
2.7484 0.9188 0.1317 63 64 61
2.7410 0.9147 0.1824 101 106 104
2.7286 0.9148 0.2143 170 162 159
2.7146 0.9561 0.0932 53 43 37
2.7191 0.9714 0.1202 51 52 45
2.7480 0.9619 0.1841 133 142 142
2.7234 0.9754 0.2175 134 135 138
2.7386 1.0261 0.1407 145 136 134
2.7412 1.0205 0.1871 137 143 144
2.7279 1.0075 0.2161 156 149 151
2.7410 1.0735 0.1418 172 168 166
2.7243 1.0695 0.1728 151 148 147
2.7324 1.1068 0.0375 86 107 104
2.7292 1.1333 0.0699 228 219 217
2.7293 1.1241 0.1167 149 147 154
2.7205 1.1798 0.0265 214 206 204
2.7412 1.1837 0.0986 176 171 167
2.7271 1.2415 0.0124 204 200 192
2.7272 1.2240 0.0729 237 224 214
2.7318 1.2749 0.0583 212 196 190
2.7367 1.3243 -0.0082 193 193 186
2.7305 1.3843 -0.0174 224 221 213
2.7309 1.3874 0.0013 191 183 177
2.7291 1.4395 -0.0238 215 204 198
2.7285 1.4223 0.0002 167 162 157
2.7306 1.4866 -0.0183 209 204 198
2.7038 1.4584 0.0028 180 176 171
2.7331 1.5384 -0.0222 216 211 205
2.7251 1.5988 -0.0545 207 208 196
2.7334 1.5696 -0.0376 167 164 165
2.7404 1.6375 -0.0531 182 184 178
2.7454 1.6367 -0.0261 195 194 187
2.7365 1.6977 -0.0615 219 211 201
2.7448 1.6892 -0.0184 167 164 162
2.7367 1.7319 -0.0318 189 179 172
2.7027 1.7631 -0.1002 189 170 172
2.7436 1.7549 -0.0916 222 203 197
2.7360 1.7974 -0.0480 168 162 159
2.7292 1.8323 -0.0965 174 160 160
2.7357 1.8419 -0.0433 181 173 169
2.7336 1.8720 -0.0280 207 197 188
2.7286 1.9234 -0.0911 207 185 182
2.7416 1.9344 -0.0475 179 170 168
2.7398 1.9754 -0.0324 151 147 144
2.7360 2.0200 -0.0741 228 207 202
2.7456 2.0208 -0.0252 174 166 162
2.7268 2.0666 -0.1276 252 226 219
2.7370 2.0954 -0.0755 195 184 181
2.7319 2.0991 -0.0402 213 203 193
2.7267 2.1486 -0.1026 233 202 199
2.7355 2.1483 -0.0708 207 202 199
2.7348 2.1907 -0.1426 255 239 234
2.7195 2.1955 -0.0639 242 240 237
2.7328 2.2065 -0.1073 216 204 201
2.7249 2.2426 -0.0808 244 240 234
2.7017 2.2582 -0.1711 248 224 218
2.7327 2.2979 -0.0756 239 229 223
2.7361 2.3237 -0.1065 220 208 202
2.7065 2.3425 -0.0715 251 252 243
2.7191 2.4078 -0.1851 176 157 159
2.7292 2.4034 -0.0983 252 247 240
2.7196 2.4535 -0.1346 249 222 218
2.7355 2.4743 -0.0870 244 240 230
2.7270 2.5381 -0.1212 250 240 231
2.7305 2.5502 -0.0803 231 216 210
2.7312 2.6205 -0.1157 248 236 230
2.7200 2.6068 -0.0888 247 234 229
2.7276 2.6888 -0.1335 255 241 230
2.7168 2.6536 -0.0782 238 231 223
2.7074 2.7424 -0.1669 231 207 199
2.7323 2.7470 -0.1039 241 221 217
2.7272 2.7870 -0.1085 252 251 243
2.7367 2.8632 -0.1119 249 248 242
2.7784 -2.7708 -0.1185 110 112 114
2.7875 -2.7579 -0.0391 104 113 115
2.7679 -2.7271 -0.0379 118 120 122
2.7853 -2.7176 0.0137 98 109 110
2.7981 -2.6989 -0.0168 117 124 126
2.7559 -2.6558 0.0187 100 112 112
2.7768 -2.6338 -0.0567 128 128 129
2.7734 -2.6201 -0.0250 139 141 143
2.7915 -2.5729 -0.0647 118 120 121
2.7693 -2.5875 -0.0250 110 118 119
2.7710 -2.5226 -0.0593 177 173 170
2.7520 -2.5160 -0.0209 96 105 106
2.7916 -2.4672 -0.0408 151 147 145
2.7668 -2.3851 -0.0305 163 162 160
2.7817 -2.3118 -0.0233 110 117 117
2.7877 -2.3109 0.0311 141 140 136
2.7960 -2.2883 -0.0737 102 104 106
2.7848 -2.2706 -0.0179 109 113 112
2.7611 -2.2685 0.0319 128 131 125
2.7771 -2.2153 -0.0495 92 103 103
2.7669 -2.1663 -0.0171 92 101 102
2.7844 -2.1993 0.0309 121 120 119
2.7515 -2.1185 -0.0580 97 104 104
2.7971 -2.1235 -0.0288 86 97 98
2.7953 -2.1239 0.0169 117 123 120
2.7948 -2.0785 -0.0296 100 107 107
2.7813 -2.0929 0.0308 149 148 142
2.7832 -2.0228 -0.0145 106 115 114
2.7955 -1.9825 -0.0131 99 108 107
2.7994 -1.9220 -0.0119 93 103 102
2.7889 -1.9357 0.0591 103 108 104
2.7844 -1.8779 -0.0126 92 102 101
2.7851 -1.8644 0.0438 155 151 145
2.7644 -1.8831 0.0658 96 103 103
2.7897 -1.8331 -0.0197 102 109 109
2.7921 -1.7837 -0.0104 84 94 94
2.7880 -1.7766 0.0283 86 98 96
2.7948 -1.7529 0.1002 96 105 104
2.7744 -1.7391 -0.0259 80 94 92
2.7875 -1.7322 0.0192 98 105 105
2.7834 -1.6817 -0.0144 84 95 92
2.7860 -1.6339 -0.0155 132 133 130
2.7600 -1.6150 0.0821 101 114 119
2.7703 -1.6455 0.1298 112 118 118
2.7817 -1.5791 0.0084 113 114 111
2.7503 -1.5812 0.1656 92 97 96
2.7801 -1.5323 0.0883 95 102 102
2.7982 -1.4733 0.0203 62 66 65
2.7903 -1.4921 0.1326 113 126 126
2.7872 -1.4851 0.1893 143 142 134
2.7882 -1.4140 0.0425 52 59 57
2.7544 -1.4373 0.0852 108 120 123
2.7867 -1.4194 0.1238 103 116 117
2.7747 -1.3788 0.1670 116 130 130
2.7859 -1.3993 0.2205 113 118 113
2.7946 -1.3376 0.1864 132 131 129
2.7850 -1.2783 0.1389 158 128 111
2.7886 -1.2727 0.1919 150 130 113
2.7777 -1.2774 0.2292 195 187 173
2.7914 -1.2347 0.1251 221 192 186
2.7928 -1.2267 0.1843 152 116 96
2.7893 -1.2299 0.2362 146 128 111
2.7761 -1.1861 0.1318 226 196 185
2.7937 -1.1339 0.1289 216 188 175
2.7726 -1.0906 0.0728 233 203 195
2.7726 -1.0688 0.1267 220 199 186
2.7715 -1.0317 0.0882 240 232 218
2.7921 -1.0349 0.1273 209 184 172
2.7571 -0.9662 0.0866 225 195 185
2.7903 -0.9808 0.1189 223 196 180
2.7806 -0.9305 0.0807 181 153 149
2.7908 -0.9292 0.1238 173 140 129
2.7604 -0.8699 0.0964 202 171 162
2.7933 -0.8790 0.1255 123 104 95
2.7790 -0.8782 0.1543 128 108 103
2.7853 -0.8242 0.0968 149 131 126
2.7902 -0.8302 0.1311 91 80 71
2.7915 -0.8304 0.1609 74 65 57
2.7882 -0.7793 0.0999 77 78 75
2.7878 -0.7808 0.1376 61 63 57
2.7944 -0.7888 0.1737 63 57 51
2.7934 -0.7330 0.1197 66 69 63
2.7929 -0.7439 0.1687 58 57 47
2.7926 -0.6785 0.1204 71 74 71
2.7882 -0.6279 0.1229 69 72 68
2.7952 -0.5801 0.1269 59 62 58
2.7851 -0.5314 0.1332 53 55 50
2.7930 -0.4826 0.1352 50 52 47
2.7907 -0.4370 0.1270 47 48 44
2.7859 -0.4310 0.1510 47 47 39
2.7970 -0.3796 0.1338 40 40 35
2.7931 -0.3772 0.1540 40 41 32
2.7851 -0.3235 0.1383 43 43 37
2.7941 -0.3302 0.1564 43 42 35
2.7976 -0.2833 0.1563 44 44 36
2.7729 -0.2266 0.1469 36 36 28
2.7877 -0.2344 0.1643 62 56 45
2.7879 -0.1771 0.1605 79 64 57
2.7885 -0.1337 0.1520 98 77 68
2.7920 -0.0783 0.1526 102 76 68
2.7934 -0.0242 0.1517 106 77 70
2.7855 0.0219 0.1690 113 85 76
2.7859 0.0763 0.1606 75 59 51
2.7903 0.1186 0.1993 224 205 182
2.7906 0.1716 0.1791 118 100 89
2.7853 0.1635 0.2006 187 163 143
2.7923 0.2115 0.1879 139 110 100
2.7808 0.2962 0.1370 84 71 67
2.7938 0.2666 0.1699 109 87 81
2.7878 0.3313 0.1468 79 66 64
2.7916 0.3670 0.1416 86 71 67
2.7877 0.4267 0.1425 87 73 69
2.7801 0.4822 0.1221 56 50 44
2.7770 0.5254 0.1207 78 65 61
2.7853 0.5736 0.1257 75 63 58
2.7878 0.6220 0.1234 74 63 60
2.7590 0.6842 0.0817 87 71 72
2.7935 0.6658 0.1247 90 73 71
2.7893 0.7174 0.1309 121 97 88
2.7837 0.7723 0.1301 109 87 80
2.7971 0.8349 0.0926 135 105 104
2.7772 0.8223 0.1383 78 67 63
2.7845 0.8840 0.0891 74 60 56
2.7934 0.8762 0.1236 62 58 55
2.7958 0.8713 0.1695 64 71 68
2.7963 0.9092 0.0955 81 76 74
2.7888 0.9278 0.1121 58 53 49
2.7882 0.9166 0.1777 106 116 115
2.7989 0.9061 0.2147 117 124 126
2.7861 0.9796 0.1313 64 61 59
2.7904 0.9701 0.1850 119 130 131
2.7832 0.9790 0.2161 115 126 131
2.7885 1.0343 0.1436 162 160 158
2.7904 1.0111 0.1858 122 131 133
2.7861 1.0657 0.1597 143 143 145
2.7846 1.1242 0.1275 249 238 233
2.7804 1.1998 0.0503 199 195 191
2.7873 1.1759 0.1086 141 140 140
2.7748 1.2341 0.0005 243 244 239
2.7927 1.2315 0.0760 202 187 180
2.7995 1.2949 -0.0271 204 206 210
2.7826 1.2843 0.0000 227 222 214
2.7875 1.2634 0.0695 136 127 125
2.7852 1.3411 -0.0143 255 255 253
2.7823 1.3387 0.0064 223 218 210
2.7799 1.3882 -0.0087 224 217 211
2.7795 1.4353 -0.0114 216 207 200
2.7731 1.4882 -0.0231 235 225 217
2.7676 1.5275 -0.0597 248 233 222
2.7853 1.5405 -0.0255 236 229 221
2.7756 1.5932 -0.0501 221 218 213
2.7773 1.5811 -0.0090 197 192 186
2.7735 1.6439 -0.0603 202 204 200
2.7858 1.6316 -0.0173 154 161 160
2.7813 1.6897 -0.0577 193 188 183
2.7884 1.6770 -0.0137 154 160 157
2.7851 1.7416 -0.0488 200 190 182
2.7838 1.7523 -0.0897 211 201 197
2.7727 1.7874 -0.0407 172 170 164
2.7765 1.8040 -0.1006 187 176 174
2.7839 1.8465 -0.0918 193 174 173
2.7710 1.8350 -0.0344 169 165 162
2.7804 1.8902 -0.0696 182 167 165
2.7633 1.8806 -0.0131 182 179 172
2.7875 1.9387 -0.0760 167 156 155
2.7743 1.9453 -0.0339 198 187 183
2.7728 1.9992 -0.0733 181 168 168
2.7880 1.9887 -0.0332 222 208 200
2.7591 2.0196 -0.0545 136 133 136
2.7753 2.0776 -0.1270 207 180 178
2.7818 2.0719 -0.0672 171 162 160
2.7711 2.0691 -0.0351 205 198 189
2.7687 2.1380 -0.1202 249 225 222
2.7839 2.1423 -0.0708 238 231 225
2.7812 2.1982 -0.1314 247 229 224
2.7826 2.2207 -0.0689 224 214 208
2.7791 2.2754 -0.1070 233 226 222
2.7831 2.2842 -0.0630 252 250 241
2.7907 2.2591 -0.0298 207 199 190
2.7510 2.3215 -0.1498 164 146 147
2.7732 2.3535 -0.1016 242 229 223
2.7816 2.3932 -0.0957 246 241 232
2.7799 2.4364 -0.0946 245 236 229
2.7644 2.4883 -0.1198 248 224 218
2.7820 2.4911 -0.0943 238 230 224
2.7668 2.5473 -0.1109 240 222 219
2.7743 2.5465 -0.0834 253 244 233
2.7756 2.6103 -0.1207 252 243 235
2.7770 2.6745 -0.1189 253 243 232
2.7513 2.6864 -0.0874 248 246 228
2.7878 2.7322 -0.0914 249 242 226
2.7701 2.7590 -0.1233 251 242 234
2.7739 2.8005 -0.1096 232 225 216
2.7778 2.8170 -0.0855 229 219 211
2.7863 2.8581 -0.1252 250 237 231
2.8352 -2.7680 -0.0364 106 114 115
2.8392 -2.7259 -0.0645 104 115 116
2.8395 -2.7204 -0.0305 107 115 117
2.8036 -2.6914 -0.0673 98 107 109
2.8487 -2.6698 -0.0331 93 103 106
2.8391 -2.6131 -0.0610 116 116 116
2.8496 -2.6263 -0.0283 97 106 106
2.8245 -2.5664 -0.0522 110 117 117
2.8286 -2.5273 -0.0310 120 124 124
2.8295 -2.4208 -0.0302 114 114 116
2.8408 -2.3742 -0.0240 124 125 124
2.8294 -2.3258 -0.0841 107 111 114
2.8279 -2.3125 -0.0346 104 112 112
2.8459 -2.3256 0.0010 118 119 117
2.8278 -2.2702 -0.0731 88 99 100
2.8390 -2.2822 -0.0409 93 102 103
2.8237 -2.2544 0.0322 144 140 135
2.8348 -2.2371 -0.0677 77 88 89
2.8424 -2.2244 -0.0174 82 95 94
2.8137 -2.2421 0.0018 100 109 108
2.8350 -2.1829 -0.0449 83 93 94
2.8334 -2.1908 0.0226 132 132 128
2.8404 -2.1229 -0.0314 98 106 107
2.8446 -2.0629 -0.0323 94 103 104
2.8422 -2.0690 0.0215 104 113 112
2.8424 -1.9735 -0.0116 83 93 95
2.8321 -1.9923 0.0392 117 120 117
2.8211 -1.9277 0.0389 111 116 114
2.8375 -1.8847 -0.0245 84 94 93
2.8460 -1.8204 -0.0042 83 94 94
2.8475 -1.7733 -0.0040 85 95 95
2.8495 -1.7613 0.0940 108 117 114
2.8337 -1.7264 -0.0018 94 102 103
2.8167 -1.7328 0.0352 86 97 100
2.8284 -1.6730 0.0240 109 113 113
2.8324 -1.6293 0.0121 110 111 109
2.8436 -1.6274 0.0587 103 110 110
2.8228 -1.6328 0.1321 122 125 121
2.8335 -1.5830 0.0168 128 125 121
2.8251 -1.5247 0.0289 108 105 104
2.8484 -1.5362 0.0615 89 97 98
2.8484 -1.4881 0.1290 124 129 132
2.8219 -1.4419 0.0280 49 56 54
2.8383 -1.4213 0.0600 54 63 59
2.8003 -1.4418 0.1763 162 159 153
2.8232 -1.3883 0.1212 54 63 63
2.8359 -1.3883 0.1766 160 154 148
2.8382 -1.3256 0.1570 176 156 148
2.8236 -1.3380 0.2196 140 139 133
2.8232 -1.2767 0.1243 219 192 192
2.8426 -1.2796 0.1853 145 115 98
2.8179 -1.2793 0.2174 160 141 121
2.8430 -1.2320 0.1457 195 157 140
2.8242 -1.2356 0.1769 164 96 76
2.8402 -1.1853 0.1035 245 231 217
2.8042 -1.1226 0.0769 247 230 225
2.8362 -1.1370 0.1231 223 203 191
2.8293 -1.0861 0.0737 255 255 243
2.8284 -1.0827 0.1323 220 195 184
2.8335 -1.0303 0.1167 195 160 146
2.8470 -1.0341 0.1542 151 107 93
2.8261 -0.9832 0.0850 221 205 196
2.8292 -0.9861 0.1373 197 168 155
2.8451 -0.9372 0.0863 165 136 128
2.8498 -0.9400 0.1187 148 126 117
2.8455 -0.9377 0.1502 158 128 116
2.8172 -0.8803 0.0939 127 109 101
2.8378 -0.8945 0.1187 115 100 91
2.8402 -0.8902 0.1549 106 84 75
2.8421 -0.8244 0.0963 75 77 74
2.8448 -0.8317 0.1286 66 66 60
2.8331 -0.8392 0.1680 65 62 54
2.8410 -0.7754 0.1312 69 68 59
2.8474 -0.7944 0.1661 52 51 42
2.8426 -0.7313 0.1243 60 63 61
2.8413 -0.6825 0.1193 62 67 66
2.8402 -0.6306 0.1227 67 72 68
2.8388 -0.5814 0.1250 60 63 59
2.8389 -0.5256 0.1290 57 57 54
2.8353 -0.4727 0.1327 61 58 55
2.8469 -0.4304 0.1302 48 48 43
2.8407 -0.4284 0.1515 47 48 40
2.8451 -0.3847 0.1309 44 44 39
2.8443 -0.3818 0.1560 45 45 37
2.8431 -0.3207 0.1356 49 49 44
2.8421 -0.3365 0.1522 44 44 36
2.8068 -0.2802 0.1411 48 46 40
2.8405 -0.2269 0.1439 80 68 60
2.8396 -0.2408 0.1560 97 78 66
2.8425 -0.1822 0.1441 92 69 63
2.8392 -0.1312 0.1461 117 90 81
2.8356 -0.0846 0.1478 114 85 77
2.8362 -0.0271 0.1435 121 90 83
2.8036 -0.0181 0.1738 121 93 77
2.8379 0.0256 0.1521 114 86 80
2.8246 0.0691 0.1783 131 104 95
2.8264 0.1178 0.1758 102 89 79
2.8380 0.1682 0.1828 108 86 77
2.8438 0.2190 0.1742 145 116 106
2.8293 0.2711 0.1432 132 115 111
2.8401 0.2682 0.1631 99 73 68
2.8342 0.3213 0.1402 98 85 81
2.8236 0.3186 0.1611 101 79 73
2.8407 0.3776 0.1382 90 76 71
2.8049 0.3908 0.1605 98 84 75
2.8273 0.4760 0.1240 66 55 54
2.8437 0.5256 0.1257 79 59 57
2.8360 0.5757 0.1245 68 54 51
2.8373 0.6330 0.0471 92 90 89
2.8337 0.6269 0.0996 71 61 58
2.8354 0.6275 0.1367 89 74 64
2.8460 0.6765 0.1209 82 65 60
2.8336 0.7213 0.1264 103 82 77
2.8405 0.7647 0.0764 83 62 53
2.8359 0.7765 0.1298 126 107 93
2.8349 0.8316 0.0901 154 120 105
2.8377 0.8179 0.1230 74 68 65
2.8407 0.8252 0.1548 56 56 52
2.8340 0.8856 0.0889 83 71 69
2.8431 0.8791 0.1192 63 59 57
2.8472 0.8658 0.1642 60 67 64
2.8287 0.8861 0.2078 85 104 105
2.8392 0.9062 0.0974 60 57 53
2.8452 0.9246 0.1169 52 52 47
2.8455 0.9197 0.1740 90 100 100
2.8416 0.9146 0.2239 103 115 118
2.8320 0.9688 0.1180 60 60 56
2.8382 0.9740 0.1861 101 117 117
2.8383 0.9691 0.2190 105 118 122
2.8370 1.0153 0.1291 100 96 94
2.8314 1.0212 0.1764 121 128 130
2.8115 1.0802 0.0557 87 106 107
2.8335 1.0664 0.1437 139 143 143
2.8299 1.1407 0.0286 84 101 100
2.8380 1.1949 0.0043 215 215 210
2.8337 1.1772 0.0842 103 113 117
2.8407 1.2335 0.0660 161 159 157
2.8317 1.2629 0.0257 237 230 223
2.8239 1.3289 -0.0062 209 201 194
2.8401 1.3757 -0.0256 226 215 207
2.8339 1.3900 0.0006 209 198 192
2.8333 1.4352 -0.0212 222 209 201
2.8428 1.4228 0.0055 254 251 245
2.8296 1.4947 -0.0313 234 223 213
2.8210 1.5227 -0.0585 248 227 216
2.8396 1.5399 -0.0308 237 230 222
2.8325 1.5901 -0.0547 254 254 248
2.8389 1.5936 -0.0208 223 218 210
2.8393 1.6433 -0.0614 213 209 204
2.8366 1.6438 -0.0038 159 161 156
2.8229 1.6930 -0.0713 255 255 251
2.8430 1.6841 -0.0220 160 164 160
2.8144 1.7332 -0.0162 112 126 123
2.8265 1.7800 -0.1037 235 226 217
2.8373 1.7534 -0.0691 183 183 180
2.8197 1.7900 -0.0340 199 182 175
2.8313 1.8481 -0.0861 188 171 169
2.8258 1.8292 -0.0268 136 143 142
2.8390 1.8824 -0.0423 175 172 167
2.8251 1.9236 -0.0682 164 154 153
2.8274 1.9515 -0.0763 181 167 165
2.8267 1.9929 -0.0426 202 188 183
2.8390 2.0474 -0.1253 189 170 170
2.8344 2.0216 -0.0756 173 161 160
2.8299 2.0467 -0.0381 232 218 208
2.8449 2.0844 -0.0731 224 214 208
2.8284 2.1216 -0.1124 220 193 190
2.8328 2.1420 -0.0717 230 220 211
2.8324 2.1423 -0.0399 232 222 209
2.8207 2.1996 -0.0707 207 194 188
2.8217 2.2231 -0.1090 252 232 227
2.8322 2.2112 -0.0402 249 242 225
2.8321 2.2675 -0.0793 250 249 245
2.8364 2.3241 -0.0813 250 245 238
2.8446 2.3155 -0.0243 204 192 182
2.8240 2.3547 -0.1062 242 227 219
2.8300 2.4415 -0.1030 247 231 224
2.8393 2.4138 -0.0796 252 252 242
