ply
format ascii 1.0
element vertex 1450
property float x
property float y
property float z
property uchar red
property uchar green
property uchar blue
end_header
0.9983 2.5728 -0.1147 251 237 228
1.0184 -2.8970 0.0214 163 147 145
1.0232 -2.8475 -0.0234 98 107 109
1.0218 -2.8186 0.0686 160 148 144
1.0216 -2.7731 -0.0168 159 154 153
1.0158 -2.7440 0.0001 145 142 142
1.0386 -2.6797 -0.0140 131 131 132
1.0380 -2.6623 0.0345 112 115 112
1.0157 -2.6939 0.0549 193 180 170
1.0165 -2.6479 -0.0317 113 116 117
1.0071 -2.6177 0.0407 161 148 143
1.0451 -2.6377 0.0540 162 153 147
1.0314 -2.5923 -0.0445 109 115 116
1.0171 -2.5768 0.0129 101 109 109
1.0431 -2.5488 -0.0303 114 121 121
1.0489 -2.5114 0.0059 96 104 103
1.0227 -2.4897 -0.0692 91 100 102
1.0056 -2.4958 -0.0209 105 113 114
1.0247 -2.4776 0.0141 108 114 114
1.0318 -2.4008 0.0260 88 97 96
1.0163 -2.3588 0.0236 102 109 108
1.0012 -2.3424 -0.0071 89 98 99
1.0239 -2.3487 0.0632 98 104 102
1.0022 -2.2977 -0.0121 87 99 99
1.0295 -2.2918 0.0325 87 99 97
1.0113 -2.2700 0.0704 96 104 101
1.0282 -2.2298 0.0219 88 98 99
1.0117 -2.1867 0.0013 93 101 102
1.0064 -2.1339 0.0100 94 101 100
1.0298 -2.1249 0.1076 109 114 110
1.0269 -2.0998 0.0148 102 108 109
1.0318 -2.0406 0.0265 93 102 102
1.0177 -2.0490 0.0552 115 117 117
1.0009 -2.0375 0.1284 102 110 105
1.0074 -1.9878 0.0258 102 107 107
1.0185 -1.9668 0.0720 141 139 138
1.0042 -1.9329 0.0234 89 97 97
1.0116 -1.8932 0.0274 97 103 101
1.0226 -1.8735 0.0820 149 145 139
1.0382 -1.8543 0.1184 169 162 162
1.0047 -1.8125 0.0467 101 104 100
1.0359 -1.8491 0.1745 171 165 161
1.0001 -1.7502 0.0904 108 111 108
1.0362 -1.7854 0.1723 185 180 182
1.0249 -1.7927 0.2127 111 113 107
1.0098 -1.7194 0.0516 62 72 69
1.0040 -1.7146 0.1379 126 132 134
1.0175 -1.7178 0.1786 157 157 157
1.0217 -1.7301 0.2248 118 118 116
1.0109 -1.6783 0.0650 53 60 62
1.0381 -1.6532 0.1208 51 53 52
1.0160 -1.6770 0.1608 119 129 126
1.0261 -1.6302 0.1962 144 150 151
1.0351 -1.6409 0.2564 110 114 110
1.0229 -1.5731 0.1831 176 142 124
1.0215 -1.5796 0.2371 133 132 127
1.0221 -1.5197 0.1607 185 148 133
1.0331 -1.5147 0.2255 178 167 163
1.0291 -1.4637 0.2110 202 178 163
1.0163 -1.4266 0.1595 205 168 156
1.0160 -1.3541 0.1299 220 161 151
1.0320 -1.3685 0.1787 186 151 143
1.0163 -1.3003 0.1321 185 130 120
1.0318 -1.3038 0.1794 132 108 102
1.0237 -1.2526 0.1681 114 99 90
1.0206 -1.2492 0.1266 161 124 116
1.0196 -1.2044 0.1599 99 87 79
1.0165 -1.1718 0.1369 88 82 77
1.0144 -1.1004 0.1447 68 69 65
1.0250 -1.1480 0.1711 59 60 54
1.0177 -1.0501 0.1484 62 65 61
1.0221 -1.0777 0.1727 54 56 51
1.0205 -1.0078 0.1746 56 59 53
1.0182 -0.9834 0.1256 71 73 66
1.0198 -0.9509 0.1502 62 66 60
1.0231 -0.9003 0.1480 61 63 58
1.0062 -0.8923 0.1237 73 70 63
1.0063 -0.8389 0.1262 70 68 59
1.0223 -0.8228 0.1508 63 66 60
1.0081 -0.7850 0.1282 68 71 68
1.0148 -0.7599 0.1536 71 71 63
1.0151 -0.7426 0.1259 77 77 73
1.0162 -0.6890 0.1239 74 71 67
1.0162 -0.6977 0.1611 96 86 77
1.0160 -0.6246 0.1372 116 99 92
1.0223 -0.6268 0.1718 120 100 90
1.0212 -0.5525 0.1339 135 103 95
1.0174 -0.5575 0.1676 127 98 88
1.0153 -0.5006 0.1478 159 131 118
1.0206 -0.4587 0.1479 183 147 133
1.0275 -0.4986 0.1710 144 110 100
1.0161 -0.4020 0.1469 173 131 117
1.0200 -0.4240 0.1703 185 142 130
1.0142 -0.3487 0.1477 154 115 107
1.0212 -0.3049 0.1534 129 96 89
1.0482 -0.2964 0.1183 116 75 73
1.0118 -0.2522 0.1558 125 94 86
1.0286 -0.2405 0.1237 137 91 87
1.0207 -0.1887 0.1326 173 124 115
1.0092 -0.1964 0.1539 136 106 99
1.0378 -0.1472 0.1355 150 110 108
1.0164 -0.1224 0.1604 133 100 93
1.0092 -0.0958 0.1384 132 92 91
1.0242 -0.0434 0.1371 170 123 119
1.0181 -0.0241 0.1653 157 122 112
1.0171 0.0115 0.1484 136 111 105
1.0107 0.0484 0.1695 105 91 83
1.0226 0.0500 0.1452 138 108 100
1.0226 0.0937 0.1663 78 67 61
1.0150 0.1277 0.1452 88 74 70
1.0050 0.1540 0.1688 75 67 60
1.0199 0.2055 0.1423 74 61 56
1.0394 0.2215 0.1759 108 91 81
1.0230 0.2505 0.1494 84 69 63
1.0203 0.3092 0.1309 115 88 84
1.0092 0.3563 0.1337 82 55 55
1.0114 0.4021 0.1331 109 92 90
1.0202 0.4568 0.1348 89 72 69
1.0107 0.5299 0.1251 78 70 66
1.0086 0.5085 0.1582 77 76 70
1.0156 0.5089 0.2125 66 69 67
1.0113 0.5935 0.1289 66 63 59
1.0175 0.5771 0.1657 57 62 57
1.0139 0.6064 0.0954 90 79 76
1.0179 0.6420 0.1844 80 90 90
1.0115 0.6492 0.2141 89 107 108
1.0149 0.6725 0.1235 61 60 56
1.0094 0.6966 0.1801 87 98 99
1.0164 0.6969 0.2231 95 105 108
1.0144 0.7343 0.1464 66 71 69
1.0121 0.7448 0.1911 98 111 114
1.0348 0.7304 0.2284 100 109 110
1.0233 0.7910 0.1751 99 112 116
1.0123 0.8100 0.1474 93 101 104
1.0196 0.8642 0.0305 88 107 107
1.0330 0.8974 0.1289 230 212 212
1.0217 0.8516 0.1507 119 120 121
1.0272 0.9235 0.1074 126 131 134
1.0095 0.9684 0.0192 198 194 183
1.0120 0.9589 0.0801 186 180 176
1.0489 1.0106 0.0552 174 162 156
1.0115 1.0697 0.0138 178 174 167
1.0121 1.1250 0.0029 203 197 185
1.0121 1.1738 0.0083 222 205 193
1.0090 1.2212 -0.0227 214 205 197
1.0054 1.2719 -0.0247 232 218 207
1.0055 1.3195 -0.0274 221 207 198
1.0048 1.3745 -0.0443 224 206 197
1.0240 1.4210 -0.0139 192 191 181
1.0288 1.4804 -0.0734 248 226 217
1.0015 1.4751 -0.0092 198 196 187
1.0071 1.5279 0.0013 200 193 183
1.0331 1.5764 -0.0890 191 171 172
1.0148 1.5703 -0.0449 182 175 169
1.0236 1.6240 -0.0693 205 183 179
1.0090 1.6202 -0.0376 201 185 178
1.0102 1.6785 -0.0809 198 179 175
1.0463 1.6730 -0.0344 191 185 179
1.0466 1.7291 -0.1172 225 195 189
1.0026 1.7349 -0.0806 174 162 161
1.0091 1.7256 -0.0396 195 184 178
1.0450 1.7801 -0.1101 227 198 192
1.0300 1.8295 -0.1110 242 209 202
1.0091 1.8229 -0.0756 172 165 161
1.0480 1.8622 -0.1076 248 222 217
1.0285 1.8817 -0.0838 228 201 194
1.0216 1.8873 -0.0429 185 182 174
1.0107 1.9319 -0.0819 231 212 205
1.0090 1.9331 -0.0292 178 180 174
1.0166 1.9777 -0.0803 255 234 226
1.0063 2.0403 -0.1058 253 231 223
1.0491 2.0307 -0.0961 237 215 209
1.0431 2.0855 -0.1021 243 213 207
1.0014 2.0791 -0.0792 244 225 220
1.0061 2.1273 -0.0844 239 223 217
1.0372 2.1922 -0.1277 234 209 208
1.0305 2.1830 -0.0692 235 216 208
1.0437 2.2470 -0.0957 234 213 206
1.0481 2.2621 -0.1039 243 222 215
1.0328 2.3111 -0.0860 216 196 192
1.0349 2.3756 -0.1122 250 230 223
1.0163 2.3830 -0.0871 225 207 202
1.0088 2.4101 -0.1121 251 229 223
1.0355 2.4620 -0.1286 231 202 200
1.0309 2.4695 -0.0728 214 204 200
1.0107 2.5180 -0.0838 214 199 192
1.0466 2.5768 -0.1173 248 226 220
1.0299 2.5810 -0.0834 234 224 216
1.0268 2.5741 -0.0198 245 223 219
1.0544 -2.8840 0.0181 104 108 112
1.0540 -2.8697 0.0515 140 134 129
1.0829 -2.8259 -0.0441 135 137 138
1.0632 -2.8479 0.0046 199 183 178
1.0736 -2.7997 0.0000 167 160 159
1.0726 -2.7828 0.0620 156 145 142
1.0687 -2.7413 -0.0087 183 174 173
1.0740 -2.7475 0.0635 150 144 138
1.0737 -2.6687 -0.0399 122 117 119
1.0687 -2.6886 0.0573 145 141 136
1.0525 -2.6368 -0.0490 98 104 104
1.0820 -2.6280 0.0353 99 109 108
1.0773 -2.5957 -0.0274 108 114 114
1.0664 -2.5749 0.0120 114 120 120
1.0933 -2.5211 -0.0878 91 100 102
1.0704 -2.4837 -0.0267 84 97 97
1.0886 -2.4909 0.0452 93 105 101
1.0607 -2.4431 -0.0092 116 120 121
1.0811 -2.4408 0.0376 88 97 98
1.0519 -2.4302 0.0540 96 106 102
1.0874 -2.3762 -0.0281 86 98 96
1.0575 -2.3886 0.0334 96 102 102
1.0628 -2.3460 0.0340 91 99 98
1.0646 -2.2885 -0.0045 91 103 103
1.0947 -2.2943 0.0265 91 98 99
1.0756 -2.2751 0.0701 112 112 112
1.0796 -2.2396 -0.0058 92 100 102
1.0545 -2.2431 0.0345 88 97 98
1.0655 -2.1781 0.0232 91 101 100
1.0860 -2.1537 0.0506 123 124 121
1.0674 -2.1198 0.0085 96 106 103
1.0805 -2.0544 0.0063 107 109 111
1.0963 -2.0797 0.1325 154 154 142
1.0757 -2.0074 0.0421 152 145 142
1.0601 -1.9895 0.0130 95 103 102
1.0640 -1.9209 0.0279 105 111 109
1.0718 -1.9292 0.0918 214 202 195
1.0575 -1.9095 0.1334 225 205 201
1.0611 -1.9452 0.1713 143 146 138
1.0885 -1.8607 0.2020 140 134 129
1.0560 -1.8489 0.0339 117 117 113
1.0606 -1.7574 0.0390 79 83 81
1.0523 -1.7748 0.0634 121 128 128
1.0650 -1.7980 0.1352 145 143 141
1.0702 -1.7619 0.1710 186 186 188
1.0731 -1.7544 0.2168 123 122 118
1.0751 -1.7147 0.0482 61 67 66
1.0841 -1.7416 0.1292 140 138 134
1.0579 -1.7007 0.1755 158 162 163
1.0769 -1.6914 0.0674 54 60 57
1.0701 -1.6790 0.1249 52 54 58
1.0767 -1.6751 0.2291 146 148 146
1.0610 -1.6491 0.1591 111 122 123
1.0790 -1.6111 0.2250 151 153 153
1.0835 -1.5612 0.2468 140 144 140
1.0834 -1.5434 0.1740 164 116 114
1.0668 -1.5122 0.2366 189 182 175
1.0668 -1.4689 0.1627 166 136 131
1.0725 -1.4745 0.2154 213 187 175
1.0748 -1.4108 0.2084 151 143 136
1.0864 -1.3783 0.1312 255 225 225
1.0668 -1.3740 0.1558 199 162 153
1.0786 -1.3600 0.2077 112 112 108
1.0759 -1.3427 0.1328 211 157 151
1.0819 -1.3019 0.2229 85 92 88
1.0624 -1.2749 0.1334 204 155 145
1.0672 -1.2742 0.1727 158 131 125
1.0699 -1.2537 0.2078 74 81 76
1.0670 -1.2041 0.1700 65 66 61
1.0829 -1.2140 0.2299 76 86 81
1.0736 -1.1762 0.1376 72 72 69
1.0710 -1.1511 0.1748 60 64 59
1.0828 -1.1596 0.2189 71 81 75
1.0658 -1.1077 0.1428 65 70 66
1.0713 -1.1023 0.1766 56 60 55
1.0609 -1.0530 0.1437 66 68 66
1.0747 -1.0560 0.1791 56 59 55
1.0756 -1.0026 0.1414 63 68 64
1.0686 -0.9559 0.1389 68 72 67
1.0736 -0.9789 0.1812 49 52 47
1.0927 -0.9432 0.1181 68 69 64
1.0845 -0.9101 0.1786 49 50 43
1.0771 -0.8936 0.1362 66 69 66
1.0646 -0.8519 0.1515 62 64 60
1.0762 -0.8153 0.1690 62 65 59
1.0748 -0.7981 0.1265 69 72 70
1.0625 -0.7540 0.1529 78 74 65
1.0689 -0.7336 0.1233 104 96 91
1.0693 -0.7029 0.1652 95 84 76
1.0640 -0.6790 0.1345 93 84 81
1.0679 -0.6512 0.1597 146 120 110
1.0608 -0.6070 0.1417 129 103 95
1.0724 -0.6041 0.1652 140 109 100
1.0704 -0.5552 0.1664 157 122 111
1.0652 -0.5480 0.1366 161 133 119
1.0694 -0.4909 0.1437 165 129 119
1.0734 -0.4724 0.1703 159 118 110
1.0681 -0.4468 0.1496 231 198 182
1.0624 -0.4162 0.1691 179 130 118
1.0689 -0.3973 0.1471 188 144 132
1.0682 -0.3471 0.1464 154 116 108
1.0777 -0.2809 0.1663 131 99 91
1.0774 -0.2302 0.1285 151 117 113
1.0578 -0.2261 0.1530 140 105 98
1.0778 -0.1570 0.1306 139 109 109
1.0629 -0.1566 0.1516 144 108 100
1.0719 -0.1014 0.1644 168 137 124
1.0809 -0.0953 0.1362 139 103 100
1.0697 -0.0521 0.1616 160 122 112
1.0715 -0.0487 0.1309 136 92 86
1.0643 0.0149 0.1383 116 83 81
1.0709 0.0066 0.1623 158 129 122
1.0642 0.0661 0.1408 140 109 104
1.0607 0.0503 0.1666 123 97 89
1.0658 0.1003 0.1454 92 77 72
1.0691 0.1020 0.1666 102 85 75
1.0627 0.1501 0.1479 75 64 59
1.0586 0.1713 0.1682 102 86 78
1.0780 0.2144 0.1225 54 41 38
1.0725 0.2687 0.1288 107 87 81
1.0608 0.3191 0.1369 70 49 44
1.0608 0.3581 0.1200 77 61 58
1.0646 0.4084 0.1311 101 80 80
1.0676 0.4787 0.1361 87 73 69
1.0666 0.4546 0.1507 70 71 68
1.0593 0.5072 0.1206 73 63 60
1.0620 0.5739 0.1193 80 71 68
1.0695 0.5707 0.1756 56 61 59
1.0712 0.6458 0.1838 79 89 88
1.0713 0.6067 0.2147 93 110 109
1.0645 0.6554 0.1247 55 57 54
1.0656 0.6721 0.2147 100 115 116
1.0658 0.7035 0.1387 56 59 56
1.0651 0.7029 0.1917 95 107 110
1.0982 0.7826 0.0455 219 210 166
1.0622 0.7583 0.1429 85 92 91
1.0674 0.7706 0.1760 94 107 110
1.0557 0.8186 0.0847 226 205 167
1.0594 0.8028 0.1468 109 118 118
1.0544 0.8644 0.0427 97 109 114
1.0753 0.8612 0.1363 108 117 120
1.0683 0.9219 0.0092 131 139 135
1.0750 0.9460 0.0942 149 140 140
1.0654 0.9018 0.1141 143 147 145
1.0678 0.9605 0.0093 198 195 186
1.0593 1.0199 0.0060 194 191 182
1.0601 1.0662 0.0213 181 171 165
1.0823 1.0888 0.0581 209 193 192
1.0729 1.1382 -0.0240 212 204 196
1.0688 1.1124 0.0060 182 174 168
1.0741 1.1724 -0.0209 219 206 199
1.0599 1.1641 0.0075 187 182 175
1.0524 1.2223 -0.0528 231 210 203
1.0737 1.2216 -0.0179 214 203 191
1.0603 1.2740 -0.0233 199 192 184
1.0996 1.3346 -0.0553 160 154 149
1.0537 1.3266 -0.0385 181 167 161
1.0550 1.3787 -0.0343 207 196 189
1.0519 1.4277 -0.0571 206 190 184
1.0988 1.4111 -0.0236 169 171 167
1.0696 1.4786 -0.0061 158 162 157
1.0519 1.5217 -0.0577 168 160 156
1.0602 1.5221 -0.0038 186 184 177
1.0565 1.5658 -0.0578 208 195 191
1.0561 1.5740 -0.0056 192 189 182
1.0721 1.6241 -0.0863 209 187 184
1.0544 1.6214 -0.0034 187 185 177
1.0745 1.6808 -0.0788 235 205 200
1.0624 1.6611 -0.0082 173 173 167
1.0821 1.7250 -0.0849 220 195 191
1.0711 1.7173 -0.0263 201 193 186
1.0906 1.7845 -0.1004 220 198 194
1.0509 1.7743 -0.0619 197 178 175
1.0751 1.7749 -0.0408 183 179 173
1.0890 1.8305 -0.1050 128 126 129
1.0766 1.8290 -0.0741 201 182 178
1.0879 1.8702 -0.1081 200 184 181
1.0990 1.8712 -0.0759 200 185 180
1.0756 1.9290 -0.0815 225 205 197
1.0609 1.9993 -0.1167 246 221 214
1.0809 2.0177 -0.0609 224 210 201
1.0500 2.0786 -0.0591 234 222 213
1.0760 2.1284 -0.0828 242 228 219
1.0814 2.1892 -0.1265 248 223 211
1.0922 2.1743 -0.0967 240 225 217
1.0970 2.2434 -0.0842 240 218 210
1.0645 2.2450 -0.0394 210 205 193
1.0557 2.2934 -0.1190 212 187 186
1.0645 2.2772 -0.0367 205 200 190
1.0610 2.3412 -0.1124 224 203 196
1.0903 2.3315 -0.0961 240 219 212
1.0889 2.3301 -0.0453 214 206 197
1.0964 2.3772 -0.0966 215 195 190
1.0992 2.4445 -0.1206 225 193 192
1.0609 2.4189 -0.0836 203 186 181
1.0667 2.5470 -0.1118 237 208 206
1.0604 2.5246 -0.0835 229 218 209
1.1255 -2.8458 0.0517 135 132 129
1.1158 -2.7915 -0.0240 138 138 138
1.1039 -2.7905 0.0551 126 124 123
1.1214 -2.7258 -0.0275 151 152 153
1.1154 -2.7124 0.0438 104 112 111
1.1070 -2.6985 -0.0053 158 157 155
1.1131 -2.6405 -0.0822 91 101 100
1.1085 -2.6454 0.0038 121 125 127
1.1163 -2.5922 0.0080 110 117 115
1.1276 -2.5274 -0.0114 102 111 112
1.1140 -2.5050 0.0208 89 98 99
1.1240 -2.4901 -0.0811 95 104 105
1.1342 -2.4705 -0.0260 83 94 95
1.1207 -2.4736 0.0479 123 128 122
1.1344 -2.4684 0.0527 106 113 111
1.1069 -2.4364 -0.0296 85 97 97
1.1156 -2.4434 0.0290 100 107 105
1.1244 -2.3526 -0.0369 89 98 100
1.1244 -2.3777 0.0175 80 93 93
1.1320 -2.3816 0.0567 105 111 107
1.1105 -2.3418 0.0335 96 103 103
1.1369 -2.3236 0.0669 120 119 115
1.1150 -2.2767 -0.0122 95 104 104
1.1201 -2.2430 0.0150 94 103 103
1.1289 -2.1979 -0.0199 100 107 105
1.1180 -2.1620 0.0240 117 118 115
1.1196 -2.1468 0.0111 97 105 102
1.1191 -2.0931 0.0164 96 104 103
1.1068 -2.0338 0.0210 93 100 98
1.1081 -2.0080 0.0637 217 202 198
1.1073 -1.9811 0.0281 113 115 112
1.1113 -1.9495 0.0174 133 129 126
1.1284 -1.9494 0.1772 185 175 167
1.1002 -1.8814 0.0249 119 120 115
1.1104 -1.8955 0.0714 160 150 146
1.1481 -1.8260 0.0339 127 124 121
1.1250 -1.8047 0.0718 129 129 124
1.1147 -1.8342 0.1422 156 149 149
1.1402 -1.8233 0.1955 111 111 109
1.1429 -1.8363 0.2098 95 99 98
1.1174 -1.7824 0.0369 90 95 92
1.1465 -1.7755 0.0821 93 95 96
1.1227 -1.8000 0.1349 134 127 127
1.1136 -1.7826 0.2243 100 103 97
1.1388 -1.7273 0.0530 70 71 64
1.1432 -1.7390 0.1342 115 122 122
1.1105 -1.7391 0.1792 160 161 161
1.1485 -1.6798 0.1458 109 122 125
1.1171 -1.6982 0.1818 168 169 169
1.1247 -1.6843 0.2188 124 123 119
1.1345 -1.6527 0.2637 135 137 127
1.1206 -1.6278 0.1967 178 177 174
1.1167 -1.6185 0.2402 133 136 133
1.1193 -1.5614 0.2219 171 168 162
1.1306 -1.5312 0.1624 218 194 186
1.1292 -1.5065 0.2207 171 164 159
1.1261 -1.4549 0.2085 174 167 161
1.1209 -1.4201 0.1719 202 171 168
1.1005 -1.4444 0.2296 132 130 128
1.1170 -1.3635 0.1322 211 169 164
1.1269 -1.3147 0.1367 107 94 92
1.1150 -1.3389 0.1655 162 142 139
1.1253 -1.3263 0.2133 132 134 132
1.1259 -1.2664 0.1380 87 81 77
1.1264 -1.2969 0.1613 128 118 113
1.1302 -1.2658 0.2307 88 98 95
1.1211 -1.2107 0.1392 52 56 57
1.1160 -1.2242 0.1681 88 91 88
1.1359 -1.2224 0.2320 71 83 80
1.1211 -1.1519 0.1338 65 70 67
1.1183 -1.1631 0.1718 61 68 65
1.1238 -1.1551 0.2241 75 86 82
1.1184 -1.1021 0.1848 61 69 66
1.1214 -1.1038 0.2301 72 82 78
1.1148 -1.0756 0.1387 61 66 63
1.1220 -1.0529 0.1827 59 66 62
1.1250 -1.0587 0.2354 66 77 72
1.1464 -1.0714 0.2606 58 71 69
1.1247 -1.0026 0.1870 62 69 65
1.1369 -1.0112 0.2299 64 76 74
1.1133 -0.9984 0.1399 61 65 62
1.1184 -0.9538 0.1939 57 63 57
1.1426 -0.9596 0.2332 77 87 84
1.1269 -0.9483 0.1462 57 59 56
1.1121 -0.9012 0.1535 60 63 58
1.1253 -0.8695 0.1765 56 58 54
1.1484 -0.8817 0.2148 86 93 93
1.1254 -0.8463 0.1116 74 77 73
1.1266 -0.8124 0.1861 55 54 46
1.1135 -0.7896 0.1144 76 79 75
1.1269 -0.7851 0.1728 70 70 64
1.1157 -0.7248 0.1251 95 89 85
1.1168 -0.7243 0.1620 83 75 68
1.1222 -0.6857 0.1908 56 50 44
1.1333 -0.6748 0.2018 88 73 69
1.1150 -0.6490 0.1336 117 94 89
1.1155 -0.6290 0.1619 112 93 85
1.1168 -0.5754 0.1348 175 145 135
1.1260 -0.5514 0.1726 173 138 123
1.1092 -0.4996 0.1375 186 147 138
1.1200 -0.4740 0.1711 173 135 123
1.1188 -0.4448 0.1441 214 175 161
1.1053 -0.4050 0.1721 183 138 125
1.1165 -0.3755 0.1444 186 141 132
1.1236 -0.3267 0.1613 138 106 94
1.1069 -0.2791 0.1192 178 134 128
1.1226 -0.2688 0.1650 170 136 119
1.1016 -0.2360 0.1121 110 78 75
1.1208 -0.1940 0.1225 163 133 124
1.1143 -0.1744 0.1564 166 132 115
1.1308 -0.0778 0.1327 127 94 89
1.1236 -0.0776 0.1607 168 128 116
1.1181 -0.0208 0.1373 181 147 140
1.1241 -0.0065 0.1617 159 118 106
1.1167 0.0380 0.1608 148 119 101
1.1220 0.0540 0.1369 154 119 115
1.1227 0.0967 0.1659 121 98 91
1.1177 0.1012 0.1402 102 82 75
1.1213 0.1452 0.1697 91 72 67
1.1183 0.1531 0.1467 93 77 71
1.1109 0.1915 0.1687 98 80 73
1.1177 0.2023 0.1387 92 76 71
1.1194 0.2801 0.0978 67 55 53
1.1127 0.2764 0.1416 95 78 72
1.1187 0.3495 0.1485 80 70 65
1.1269 0.3546 0.1198 92 76 71
1.1111 0.4017 0.1343 88 70 67
1.1110 0.4555 0.1354 82 70 66
1.1107 0.5112 0.1136 86 75 71
1.1209 0.5069 0.1545 74 73 69
1.1117 0.5524 0.1194 70 62 58
1.1126 0.5526 0.1657 58 63 60
1.1057 0.6052 0.1221 70 65 61
1.1158 0.6275 0.1783 57 62 60
1.1207 0.6235 0.2124 96 108 109
1.1215 0.6532 0.1252 51 51 48
1.1188 0.6993 0.1882 101 109 111
1.1169 0.6965 0.2100 122 132 132
1.1092 0.7267 0.1369 64 69 66
1.1096 0.7432 0.1780 102 115 118
1.1450 0.7857 0.0407 213 200 157
1.1378 0.7888 0.0947 212 207 198
1.1208 0.7931 0.1497 121 129 130
1.1193 0.8090 0.0457 255 239 169
1.1028 0.8425 0.0879 166 165 160
1.1198 0.8810 0.0346 204 197 188
1.1108 0.8792 0.1294 111 120 123
1.1099 0.9235 -0.0024 192 191 180
1.1500 0.9135 0.0083 188 183 175
1.1254 0.9493 0.0846 81 88 88
1.1295 0.9134 0.1133 112 118 119
1.1140 0.9666 0.0086 195 193 184
1.1028 0.9728 0.0555 158 155 151
1.1316 1.0175 0.0072 171 173 166
1.1074 1.0016 0.0720 191 176 171
1.1146 1.0642 0.0230 194 186 179
1.1498 1.0541 0.0559 142 142 142
1.1169 1.1332 -0.0143 255 255 224
1.1285 1.1114 0.0073 206 203 192
1.1118 1.1088 0.0513 255 236 227
1.1121 1.1550 -0.0056 179 176 168
1.1413 1.2238 -0.0217 173 169 164
1.1124 1.2022 0.0038 163 156 155
1.1177 1.2732 -0.0158 214 203 194
1.1093 1.3132 -0.0274 175 173 168
1.1442 1.3810 -0.0530 171 162 160
1.1076 1.3704 -0.0395 190 177 172
1.1330 1.3623 0.0407 104 120 121
1.1037 1.4211 -0.0469 184 174 170
1.1225 1.4744 -0.0751 235 204 199
1.1089 1.4696 -0.0082 150 154 151
1.1133 1.5241 -0.0748 185 171 170
1.1178 1.5062 0.0060 140 147 144
1.1318 1.5922 -0.1030 160 146 148
1.1006 1.5760 -0.0728 214 188 186
1.1105 1.6292 -0.0502 190 183 179
1.1299 1.6193 -0.0114 181 182 177
1.1409 1.6526 -0.0912 194 178 179
1.1063 1.6640 -0.0228 197 188 184
1.1252 1.7260 -0.1189 255 225 218
1.1440 1.7253 -0.0795 194 173 171
1.1285 1.7169 -0.0232 178 174 169
1.1470 1.7812 -0.0904 226 202 196
1.1082 1.8153 -0.0496 216 205 198
1.1439 1.8727 -0.0841 215 195 190
1.1187 1.8754 -0.0383 198 193 183
1.1056 1.9360 -0.1252 191 180 177
1.1487 1.9264 -0.0771 204 194 188
1.1480 1.9176 -0.0350 213 202 194
1.1296 1.9847 -0.1154 230 205 198
1.1051 1.9697 -0.0670 209 194 189
1.1340 2.0204 -0.1056 198 188 182
1.1093 2.0226 -0.0933 179 173 173
1.1011 2.0769 -0.1014 214 202 197
1.1257 2.0533 -0.0682 248 218 208
1.1463 2.1791 -0.1121 230 211 206
1.1066 2.1611 -0.0349 181 184 175
1.1149 2.2169 -0.0346 179 178 169
1.1286 2.2847 -0.1111 241 217 211
1.1466 2.3264 -0.1070 252 232 222
1.1411 2.4322 -0.1151 255 232 228
1.1453 2.4934 -0.1116 244 220 214
1.1265 2.4722 -0.0967 229 205 202
1.1254 2.5449 -0.1206 221 196 198
1.1448 2.5455 -0.0886 230 220 214
1.1053 2.5583 -0.1177 232 205 205
1.1542 -2.8323 0.0606 104 110 108
1.1851 -2.7922 -0.0265 123 123 125
1.1616 -2.7776 0.0374 99 110 108
1.1977 -2.7001 -0.0623 88 95 95
1.1593 -2.7408 -0.0199 165 164 163
1.1590 -2.6869 -0.0246 107 110 111
1.1806 -2.6714 0.0229 114 120 119
1.1724 -2.6182 -0.0732 88 97 98
1.1681 -2.5769 0.0048 102 110 109
1.1736 -2.5428 0.0495 104 107 106
1.1546 -2.4590 -0.0743 95 102 104
1.1831 -2.4857 -0.0235 91 104 104
1.1806 -2.4854 0.0169 88 98 99
1.1731 -2.4745 0.0542 107 113 108
1.1685 -2.4038 -0.0576 97 101 104
1.1757 -2.4382 -0.0213 84 96 97
1.1762 -2.4207 0.0121 89 98 100
1.1743 -2.3658 -0.0236 93 102 103
1.1833 -2.3813 0.0522 128 123 119
1.1663 -2.3090 -0.0128 101 107 109
1.1692 -2.3163 0.0217 92 100 102
1.1966 -2.2893 -0.0149 122 121 120
1.1616 -2.2332 -0.0122 101 107 107
1.1612 -2.2432 0.0161 117 119 119
1.1585 -2.1984 -0.0005 108 112 111
1.1679 -2.1391 -0.0030 124 122 122
1.1668 -2.1459 0.0243 121 121 120
1.1675 -2.0963 -0.0081 125 121 122
1.1641 -2.0712 0.0225 153 146 143
1.1852 -1.9899 -0.0062 159 151 147
1.1659 -1.9332 0.0229 149 143 138
1.1517 -1.9113 0.1150 216 199 194
1.1794 -1.8932 0.0160 131 124 122
1.1731 -1.8622 0.2157 141 138 127
1.1940 -1.8014 0.0514 104 107 104
1.1756 -1.7265 0.1789 137 140 142
1.1826 -1.7302 0.2182 168 162 153
1.1540 -1.6779 0.1128 61 72 75
1.1702 -1.6661 0.1967 163 160 157
1.1790 -1.6548 0.2229 155 149 140
1.1752 -1.6061 0.1856 188 175 171
1.1702 -1.6155 0.2274 157 154 148
1.1598 -1.5777 0.2346 147 141 134
1.1642 -1.5103 0.1490 220 197 198
1.1743 -1.5320 0.2188 152 149 144
1.1746 -1.4990 0.1947 216 205 201
1.1797 -1.4621 0.2211 167 164 160
1.1600 -1.4327 0.1645 206 191 189
1.1777 -1.4094 0.2212 183 177 173
1.1691 -1.3743 0.1692 189 177 174
1.1751 -1.3571 0.2357 114 122 119
1.2000 -1.3041 0.1816 77 91 89
1.1724 -1.3067 0.2310 98 107 104
1.1717 -1.2758 0.1711 73 81 79
1.1708 -1.2556 0.2147 74 87 85
1.1769 -1.2634 0.2544 70 83 83
1.1624 -1.2380 0.1325 58 65 63
1.1731 -1.2078 0.1755 64 76 76
1.1738 -1.2125 0.2300 77 88 85
1.1726 -1.1914 0.1368 67 71 70
1.1633 -1.1553 0.1791 63 75 74
1.1778 -1.1601 0.2236 70 83 80
1.1834 -1.1445 0.1450 59 67 65
1.1641 -1.1090 0.1767 63 74 75
1.1579 -1.1095 0.2225 70 83 81
1.1638 -1.0761 0.1401 56 60 59
1.1670 -1.0515 0.1825 62 74 72
1.1795 -1.0587 0.2227 69 82 80
1.1716 -1.0082 0.1860 64 75 73
1.1808 -1.0313 0.2625 60 72 71
1.1591 -0.9743 0.1402 59 63 61
1.1656 -0.9521 0.1924 59 71 70
1.1728 -0.9777 0.2338 67 79 77
1.1926 -0.9851 0.2666 55 68 68
1.1864 -0.9099 0.1166 68 73 69
1.1554 -0.9047 0.1994 66 72 67
1.1750 -0.9273 0.2395 63 78 77
1.1760 -0.8791 0.1282 73 73 72
1.1774 -0.8727 0.1764 77 73 71
1.1755 -0.8597 0.2315 83 89 89
1.1669 -0.8656 0.2532 88 95 95
1.1591 -0.8413 0.1170 68 70 68
1.1659 -0.8094 0.1547 65 61 57
1.1732 -0.8016 0.2031 101 98 89
1.1745 -0.8096 0.2535 65 76 74
1.1724 -0.7868 0.1170 88 79 75
1.1689 -0.7546 0.1569 89 79 72
1.1755 -0.7547 0.2091 116 115 106
1.1872 -0.7617 0.2519 71 79 81
1.1703 -0.7353 0.1127 79 74 71
1.1753 -0.7022 0.1582 87 75 69
1.1715 -0.7178 0.2225 123 115 106
1.1665 -0.6718 0.1266 124 96 92
1.1762 -0.6548 0.1652 139 112 103
1.1722 -0.6582 0.2040 151 129 117
1.1890 -0.6659 0.2546 131 124 119
1.1716 -0.6053 0.1702 189 149 135
1.1835 -0.6171 0.2304 167 153 147
1.1864 -0.5943 0.1343 169 133 126
1.1692 -0.5524 0.1761 184 142 129
1.1862 -0.5684 0.2127 193 164 153
1.1668 -0.5248 0.1354 185 147 137
1.1949 -0.5478 0.2561 208 188 183
1.1671 -0.4511 0.1355 201 157 148
1.1724 -0.4756 0.1751 193 152 138
1.1694 -0.4035 0.1418 177 131 121
1.1656 -0.4058 0.1737 150 115 105
1.1677 -0.3538 0.1645 166 133 123
1.1716 -0.3087 0.1770 156 118 108
1.1751 -0.2692 0.1333 134 88 84
1.1713 -0.2751 0.1650 165 129 118
1.1607 -0.2266 0.1159 133 84 79
1.1672 -0.2072 0.1648 146 115 100
1.1697 -0.1585 0.1724 142 109 98
1.1736 -0.1381 0.1311 103 77 73
1.1748 -0.1034 0.1599 161 123 109
1.1626 -0.0883 0.1300 122 92 89
1.1722 -0.0527 0.1602 179 135 123
1.1678 -0.0052 0.1339 171 126 117
1.1681 -0.0010 0.1579 177 139 120
1.1648 0.0430 0.1588 160 124 110
1.1676 0.0557 0.1398 145 117 95
1.1680 0.1130 0.1356 107 86 80
1.1695 0.1262 0.1631 131 105 98
1.1742 0.1574 0.1424 115 93 88
1.1783 0.2104 0.1218 65 56 56
1.1546 0.2201 0.1662 124 102 95
1.1665 0.2509 0.1223 64 48 46
1.1738 0.2541 0.1690 107 91 87
1.1625 0.3083 0.1274 95 77 73
1.1602 0.3753 0.1439 89 79 75
1.1710 0.4061 0.1127 95 79 75
1.1691 0.4508 0.1186 82 71 68
1.1687 0.4735 0.1517 73 72 68
1.1649 0.5265 0.1185 75 67 64
1.1529 0.5403 0.1925 61 71 67
1.1685 0.5560 0.1610 70 77 74
1.1620 0.6241 0.1272 67 64 61
1.1633 0.6006 0.1722 69 75 74
1.1562 0.6049 0.2156 110 121 119
1.1714 0.6982 0.1360 57 60 56
1.1713 0.6758 0.1766 83 91 91
1.1710 0.6573 0.2106 133 142 140
1.1745 0.7440 0.1580 106 117 120
1.1681 0.7005 0.2014 113 116 117
1.1682 0.7691 0.1248 158 163 159
1.1608 0.7896 0.1688 129 129 126
1.1859 0.8266 0.0265 221 202 163
1.1648 0.8168 0.1267 87 96 95
1.1882 0.8815 0.0042 198 198 191
1.1795 0.8771 0.1179 120 129 131
1.1933 0.9391 0.0029 202 199 188
1.1805 0.9469 0.0933 106 111 115
1.1748 0.9273 0.1023 163 158 156
1.1655 0.9680 0.0122 197 191 186
1.1611 1.0770 0.0078 178 178 172
1.1856 1.0624 0.0531 148 146 146
1.1741 1.1398 -0.0172 240 233 219
1.1546 1.1750 -0.0221 219 206 196
1.1681 1.1625 0.0045 165 164 160
1.1989 1.2195 -0.0265 135 140 139
1.1665 1.2659 -0.0271 149 151 148
1.1606 1.3204 -0.0237 128 137 135
1.1507 1.3116 0.0250 105 122 124
1.1872 1.3818 -0.0679 116 113 116
1.1516 1.3792 -0.0222 128 139 137
1.1830 1.3681 0.0485 134 140 143
1.1717 1.4390 -0.1149 108 101 106
1.1530 1.4291 -0.0590 163 154 154
1.1502 1.4218 -0.0148 138 145 143
1.1814 1.4121 0.0289 127 137 136
1.1677 1.4772 -0.0765 245 214 208
1.1590 1.4658 -0.0124 150 152 148
1.1832 1.4607 0.0288 165 168 160
1.1577 1.5206 -0.0243 175 172 166
1.1872 1.5770 -0.0927 193 176 174
1.1695 1.5715 -0.0367 163 160 157
1.1645 1.6219 -0.1107 223 196 194
1.1745 1.6140 -0.0228 200 198 189
1.1831 1.6623 -0.0914 184 169 168
1.1571 1.6672 -0.0250 165 161 158
1.1994 1.7205 -0.0929 189 166 165
1.1535 1.7230 -0.0325 179 176 171
1.1738 1.7722 -0.0411 202 199 191
1.1975 1.7608 0.0096 156 162 158
1.1530 1.8232 -0.0933 230 202 199
1.1516 1.8232 -0.0391 209 202 195
1.1614 1.8732 -0.0392 199 191 186
1.1748 1.9185 -0.1063 242 218 207
1.1905 1.9304 -0.0759 209 196 190
1.1740 1.9882 -0.0725 213 197 193
1.1640 1.9731 -0.0183 203 198 193
1.1951 2.0143 -0.1116 226 200 197
1.1676 2.0228 -0.0748 214 197 191
1.1607 2.0225 -0.0253 205 200 193
1.1753 2.0854 -0.1083 243 208 206
1.1756 2.0763 -0.0721 212 197 192
1.1989 2.1456 -0.1035 247 223 220
1.1735 2.1309 -0.0759 225 207 205
1.1568 2.2277 -0.1046 211 193 189
1.1975 2.2793 -0.1004 224 203 200
1.1657 2.2909 -0.0550 190 184 179
1.1927 2.2751 -0.0357 145 147 149
1.1906 2.3216 -0.1178 227 199 188
1.1657 2.3242 -0.0522 186 181 174
1.1883 2.3219 -0.0296 161 164 162
1.1986 2.3263 0.0002 168 171 171
1.1997 2.3924 -0.1191 196 183 180
1.1503 2.3751 -0.0949 253 227 221
1.1709 2.3764 -0.0333 187 185 179
1.1964 2.4265 -0.1169 248 221 217
1.2130 -2.7877 -0.0174 160 157 157
1.2101 -2.7620 0.0702 94 103 102
1.2105 -2.7424 -0.0093 131 132 131
1.2151 -2.7364 0.0393 93 102 101
1.2295 -2.6763 -0.0244 93 101 104
1.2194 -2.6639 0.0392 90 101 100
1.2243 -2.6197 -0.0277 82 94 95
1.2155 -2.6040 0.0191 99 107 106
1.2384 -2.5135 -0.0547 108 109 113
1.2027 -2.5441 -0.0445 89 99 100
1.2211 -2.5349 0.0264 89 99 100
1.2184 -2.4763 0.0205 94 102 103
1.2398 -2.3572 -0.0121 137 136 136
1.2048 -2.3932 0.0124 93 103 104
1.2106 -2.3487 0.0155 114 117 119
1.2163 -2.2918 0.0139 125 128 129
1.2161 -2.2371 0.0120 99 109 109
1.2039 -2.1925 -0.0014 120 120 120
1.2189 -2.1718 0.0237 155 150 148
1.2290 -2.1224 0.0139 139 135 134
1.2179 -2.0886 0.0050 148 141 141
1.2215 -2.0379 0.0111 155 150 147
1.2332 -2.0290 0.0675 234 212 208
1.2051 -1.9839 0.0139 157 152 147
1.2142 -1.9300 0.0193 153 145 140
1.2013 -1.9275 0.0849 185 174 171
1.2336 -1.9016 0.1931 172 163 148
1.2217 -1.8878 0.0446 157 148 144
1.2166 -1.8705 0.1366 182 178 175
1.2062 -1.8663 0.1900 123 124 119
1.2215 -1.8220 0.0291 114 112 108
1.2113 -1.8485 0.0666 146 141 138
1.2052 -1.8007 0.1229 133 133 131
1.2033 -1.8211 0.1629 133 137 138
1.2001 -1.7551 0.1443 145 149 150
1.2051 -1.7672 0.1785 125 129 130
1.2251 -1.7782 0.2109 190 177 161
1.2087 -1.7443 0.0429 69 68 64
1.2419 -1.7125 0.1315 102 115 118
1.2225 -1.7055 0.1864 141 144 146
1.2427 -1.7062 0.2288 185 164 153
1.2417 -1.6987 0.0959 67 75 79
1.2284 -1.6622 0.1872 122 128 127
1.2374 -1.6771 0.2072 118 119 117
1.2260 -1.6069 0.1961 152 153 153
1.2257 -1.6145 0.2215 139 140 137
1.2122 -1.5502 0.1959 192 185 183
1.2166 -1.5627 0.2217 127 129 130
1.2203 -1.5090 0.2165 152 150 149
1.2209 -1.4619 0.2174 190 185 184
1.2209 -1.4088 0.2210 171 171 167
1.2140 -1.3566 0.2026 105 110 109
1.2112 -1.3244 0.2231 82 94 93
1.2159 -1.2695 0.2296 75 87 86
1.2133 -1.2464 0.1759 69 82 82
1.2300 -1.2030 0.2139 71 85 86
1.2087 -1.1795 0.1331 58 63 63
1.2190 -1.1779 0.1725 65 79 81
1.2124 -1.1613 0.2138 72 85 83
1.2036 -1.1413 0.1296 63 67 67
1.2265 -1.1034 0.1702 64 78 79
1.2179 -1.1082 0.2264 68 80 78
1.2008 -1.0886 0.1382 60 67 65
1.2190 -1.0527 0.1714 61 76 76
1.2257 -1.0549 0.2242 72 83 82
1.2122 -1.0361 0.1486 61 70 68
1.2269 -1.0107 0.1774 67 81 82
1.2229 -1.0103 0.2270 69 81 81
1.2305 -1.0204 0.2666 60 72 72
1.2092 -0.9750 0.1448 56 60 58
1.2156 -0.9526 0.1861 67 77 75
1.2248 -0.9649 0.2292 69 82 81
1.2320 -0.9755 0.2671 61 75 75
1.2376 -0.9168 0.1764 58 69 67
1.2221 -0.9064 0.2376 72 85 81
1.2181 -0.8588 0.1481 58 61 59
1.2193 -0.8770 0.1749 60 65 62
1.2128 -0.8637 0.2360 70 82 82
1.2234 -0.8863 0.2721 92 99 99
1.2059 -0.8777 0.3111 93 95 92
1.2067 -0.8288 0.1269 84 73 69
1.2210 -0.8288 0.1667 85 81 80
1.2079 -0.8483 0.2395 91 96 96
1.2259 -0.8062 0.2505 66 78 78
1.2109 -0.7897 0.1226 60 60 57
1.2170 -0.7519 0.1606 127 111 105
1.2157 -0.7767 0.2016 130 126 119
1.2220 -0.7538 0.2599 77 85 85
1.2061 -0.7408 0.1264 95 80 77
1.2200 -0.7042 0.1560 116 102 97
1.2264 -0.7046 0.2076 168 162 152
1.2218 -0.7082 0.2549 94 100 96
1.2089 -0.6997 0.1268 145 107 105
1.2197 -0.6566 0.2139 172 162 151
1.2183 -0.6763 0.2579 102 103 102
1.2158 -0.6088 0.1350 148 110 106
1.2211 -0.6495 0.1538 146 117 111
1.2134 -0.6089 0.2140 214 194 177
1.2254 -0.6095 0.2527 132 126 123
1.2218 -0.5963 0.1698 182 156 147
1.2216 -0.5554 0.2172 204 182 167
1.2217 -0.5541 0.2524 172 160 155
1.2181 -0.5222 0.1388 185 140 133
1.2192 -0.5461 0.1721 211 167 154
1.2256 -0.5043 0.2526 204 189 180
1.2226 -0.4793 0.1825 182 157 143
1.2209 -0.4772 0.2286 222 199 184
1.2308 -0.4755 0.2575 198 181 173
1.2129 -0.4242 0.1401 178 133 124
1.2164 -0.4061 0.1802 145 120 108
1.2304 -0.4070 0.2268 173 160 148
1.2179 -0.3502 0.1808 136 106 95
1.2217 -0.3468 0.1407 178 136 129
1.2199 -0.3030 0.1815 146 112 102
1.2404 -0.3309 0.2226 227 206 193
1.2118 -0.2748 0.1670 168 126 116
1.2410 -0.2626 0.2255 133 122 112
1.2292 -0.2122 0.1161 232 208 167
1.2170 -0.2499 0.1539 176 133 122
1.2135 -0.1840 0.1638 156 125 111
1.2154 -0.1252 0.1297 169 134 116
1.2265 -0.1243 0.1815 178 140 116
1.2261 -0.1465 0.2536 255 247 237
1.2008 -0.0835 0.1338 144 112 104
1.2152 -0.0583 0.1790 172 138 114
1.2304 -0.0433 0.1286 121 79 73
1.2202 -0.0021 0.1570 180 139 126
1.2096 0.0162 0.1315 180 134 119
1.2171 0.0488 0.1651 153 117 111
1.2167 0.0828 0.1357 141 114 98
1.2187 0.0997 0.1665 135 106 99
1.2140 0.1431 0.1651 141 111 102
1.2210 0.1595 0.1319 117 96 91
1.2233 0.1780 0.1627 142 113 106
1.2165 0.2048 0.1387 103 83 79
1.2105 0.2427 0.1657 113 88 83
1.2470 0.2981 0.0982 76 56 54
1.2145 0.2656 0.1385 96 75 71
1.2164 0.2826 0.1676 85 86 80
1.2168 0.3049 0.1286 67 56 54
1.2250 0.3812 0.1171 123 92 91
1.2082 0.3998 0.1762 67 74 71
1.2133 0.4050 0.1461 72 71 69
1.2256 0.4434 0.1837 86 89 76
1.2164 0.4519 0.1160 90 76 75
1.2169 0.4769 0.1546 77 76 72
1.2113 0.5145 0.1192 77 71 69
1.2124 0.5479 0.1562 65 67 64
1.2255 0.5707 0.1216 83 77 73
1.2127 0.5594 0.2000 105 115 112
1.2220 0.5622 0.2592 148 153 151
1.2145 0.6042 0.1261 58 56 51
1.2169 0.6047 0.1668 77 81 77
1.2196 0.6005 0.2111 138 145 143
1.2158 0.6597 0.1302 54 55 52
1.2147 0.6752 0.1696 57 58 55
1.2249 0.6755 0.2041 140 148 146
1.2324 0.7357 0.0891 188 185 175
1.2322 0.7272 0.1274 121 129 126
1.2195 0.7392 0.1782 123 131 130
1.2216 0.7681 0.0222 253 243 159
1.2235 0.7599 0.1365 98 110 111
1.2204 0.7922 0.1689 165 157 154
1.2128 0.8257 0.0228 224 208 171
1.2138 0.8279 0.1384 105 115 117
1.2494 0.8380 0.1545 165 157 148
1.2223 0.8736 0.1108 111 122 123
1.2018 0.9692 -0.0006 176 175 169
1.2277 0.9529 0.0377 146 146 146
1.2372 0.9917 0.0707 118 124 126
1.2158 1.0176 0.0281 138 143 141
1.2294 1.0805 0.0260 170 168 163
1.2052 1.1183 0.0088 146 149 148
1.2107 1.1878 -0.0254 157 158 154
1.2020 1.1648 0.0053 143 145 143
1.2464 1.2314 -0.0293 188 181 176
1.2180 1.2151 0.0034 98 116 116
1.2321 1.2986 -0.0677 206 184 180
1.2106 1.2711 -0.0321 119 130 130
1.2095 1.3482 -0.0636 195 193 189
1.2144 1.3216 -0.0272 117 126 127
1.2496 1.3757 -0.0668 160 155 155
1.2105 1.3639 -0.0160 116 130 130
1.2090 1.3508 0.0240 102 119 121
1.2224 1.4255 -0.0608 140 138 138
1.2174 1.4123 -0.0134 100 119 119
1.2220 1.4845 -0.0788 207 186 184
1.2087 1.4719 0.0012 124 136 134
1.2058 1.5251 -0.0541 147 144 145
1.2128 1.5299 -0.0024 150 153 150
1.2111 1.5197 0.0227 179 179 173
1.2489 1.5756 -0.0571 143 147 145
1.2071 1.5796 -0.0051 168 173 166
1.2280 1.6017 -0.1088 169 154 152
1.2288 1.6313 -0.0806 240 220 216
1.2020 1.6332 -0.0473 158 157 155
1.2474 1.6097 0.0023 164 169 164
1.2158 1.6616 -0.1290 206 185 190
1.2324 1.6791 -0.0828 177 169 167
1.2090 1.6708 -0.0201 162 162 159
1.2362 1.7401 -0.1279 185 165 165
1.2254 1.7204 -0.0206 182 178 174
1.2011 1.7163 0.0037 168 172 168
1.2240 1.7707 -0.1346 214 191 192
1.2281 1.7751 -0.0717 135 130 134
1.2421 1.7716 0.0178 117 132 132
1.2265 1.7807 0.0502 115 126 129
1.2243 1.8159 -0.0933 222 199 194
1.2273 1.8110 -0.0374 192 191 185
1.2287 1.8196 0.0252 145 155 151
1.2208 1.8886 -0.1074 240 217 214
1.2248 1.8881 -0.0872 215 194 191
1.2208 1.8611 -0.0316 190 190 184
1.2117 1.8961 0.0091 177 178 173
1.2487 1.9371 -0.0703 210 198 194
1.2102 1.9237 -0.0259 192 190 183
1.2331 1.9706 -0.0138 171 173 167
1.2387 2.0331 -0.1178 229 204 200
1.2032 2.0174 -0.0144 199 197 188
1.2489 2.0879 -0.1190 219 204 202
1.2040 2.0666 -0.0150 194 192 183
1.2458 2.1237 -0.0726 223 208 202
1.2429 2.1056 0.0003 193 191 183
1.2067 2.1863 -0.1233 255 225 217
1.2320 2.1755 -0.0654 194 188 186
1.2012 2.2351 -0.1043 192 182 177
1.2059 2.2351 -0.0457 159 163 161
1.2486 2.2793 -0.1076 218 197 193
1.2302 2.2768 -0.0078 159 162 159
1.2433 2.3217 -0.1230 221 201 195
1.2442 2.3252 0.0125 177 179 176
1.2268 2.3764 -0.1085 188 179 178
1.2258 2.3802 0.0087 147 153 155
1.2118 2.4215 0.0015 124 138 140
1.2301 2.4683 -0.1163 214 199 192
1.2455 2.4790 -0.0994 191 185 184
1.2595 -2.7510 -0.0166 126 130 128
1.2690 -2.7623 0.0335 88 97 96
1.2738 -2.7138 0.0330 91 101 100
1.2586 -2.7190 0.0792 79 92 93
1.2526 -2.6620 0.0512 81 95 95
1.2852 -2.6392 -0.0039 90 99 101
1.2596 -2.5503 -0.0020 93 100 103
1.2675 -2.5978 0.0087 106 111 109
1.2585 -2.5170 0.0219 94 103 105
1.2809 -2.4595 -0.0418 171 161 162
1.2831 -2.4926 0.0419 126 128 132
1.2563 -2.4296 0.0263 114 119 122
1.2863 -2.4132 0.0523 137 134 126
1.2984 -2.3116 -0.0153 156 150 148
1.2647 -2.3452 0.0243 163 156 154
1.2638 -2.2766 0.0241 158 153 151
1.2581 -2.2015 0.0174 139 138 136
1.2557 -2.1302 0.0137 216 199 195
1.2753 -2.0830 0.0173 205 191 186
1.2697 -2.0328 0.0225 186 176 170
1.2665 -1.9801 0.0288 180 170 164
1.2905 -1.9142 0.0334 180 170 162
1.2745 -1.9026 0.1531 156 150 144
1.2815 -1.8245 0.0359 108 109 106
1.2667 -1.8227 0.0620 131 125 124
1.2693 -1.8001 0.1109 128 126 125
1.2587 -1.8153 0.1553 162 160 153
1.2597 -1.7777 0.0358 63 70 69
1.2774 -1.7688 0.1410 114 116 115
1.2613 -1.7483 0.0719 70 79 82
1.2848 -1.7248 0.1851 176 157 148
1.2643 -1.6974 0.1254 65 74 77
1.2612 -1.6345 0.1896 118 121 120
1.2708 -1.6402 0.2064 110 119 118
1.2920 -1.5748 0.2001 161 161 159
1.2819 -1.5088 0.1984 143 143 142
1.2598 -1.5293 0.2216 135 134 130
1.2626 -1.4667 0.2176 139 143 141
1.2689 -1.3780 0.2087 128 135 136
1.2724 -1.3064 0.2019 73 85 84
1.2723 -1.2599 0.2088 76 88 86
1.2624 -1.2451 0.1806 73 85 83
1.2679 -1.2074 0.2053 75 86 85
1.2583 -1.1890 0.1788 76 89 87
1.2685 -1.1585 0.2049 75 86 84
1.2612 -1.1245 0.1845 70 85 84
1.2693 -1.1101 0.2121 72 84 84
1.2750 -1.0662 0.2158 66 80 80
1.2730 -1.0239 0.1886 67 81 82
1.2697 -1.0128 0.2159 73 84 84
1.2650 -0.9532 0.1824 70 84 85
1.2708 -0.9580 0.2244 68 81 81
1.2782 -0.9096 0.1904 70 84 84
1.2618 -0.9135 0.2280 72 83 81
1.2741 -0.8576 0.1971 91 99 97
1.2610 -0.8693 0.2353 75 85 85
1.2588 -0.8138 0.1680 71 70 70
1.2817 -0.8194 0.2237 113 113 111
1.2631 -0.7621 0.1498 131 120 115
1.2677 -0.7561 0.2000 134 131 126
1.2720 -0.7597 0.2474 70 79 78
1.2762 -0.7106 0.1999 168 160 155
1.2611 -0.7071 0.2511 73 83 83
1.2627 -0.6763 0.1622 160 146 142
1.2675 -0.6632 0.2254 186 173 166
1.2628 -0.6003 0.1683 198 166 157
1.2663 -0.6054 0.2479 132 129 124
1.2765 -0.5999 0.1324 185 138 132
1.2736 -0.5565 0.1734 209 183 174
1.2690 -0.5773 0.2171 171 163 155
1.2785 -0.5595 0.2515 157 151 148
1.2657 -0.5203 0.1331 215 171 163
1.2622 -0.5081 0.1849 194 175 164
1.2666 -0.5071 0.2217 181 170 159
1.2742 -0.5097 0.2507 188 177 170
1.2582 -0.4569 0.1367 194 147 140
1.2748 -0.4546 0.2303 144 140 132
1.2849 -0.4704 0.2542 185 172 166
1.2718 -0.4400 0.1768 202 183 172
1.2688 -0.4084 0.2234 161 155 147
1.2726 -0.4200 0.2580 189 175 168
1.2723 -0.3759 0.1407 153 113 113
1.2679 -0.3942 0.1816 143 130 122
1.2702 -0.3574 0.2276 177 168 160
1.2683 -0.3488 0.1837 172 150 138
1.2760 -0.3081 0.2316 169 164 156
1.2621 -0.2739 0.1467 162 117 110
1.2681 -0.2746 0.1946 199 179 167
1.2704 -0.2538 0.2342 191 182 168
1.2660 -0.2012 0.1762 144 112 100
1.2646 -0.2071 0.2296 136 127 121
1.2643 -0.1562 0.1957 217 196 169
1.2723 -0.1266 0.1744 140 116 99
1.2928 -0.1430 0.2334 202 184 176
1.2589 -0.0819 0.1292 122 92 82
1.2711 -0.0732 0.1580 155 123 107
1.2883 -0.0749 0.2281 199 177 163
1.2673 -0.0049 0.1653 156 124 112
1.2878 0.0114 0.1234 160 107 99
1.2758 0.0011 0.1968 199 162 148
1.2623 0.0586 0.1220 174 138 120
1.2735 0.0587 0.1820 130 99 93
1.2655 0.1121 0.1356 147 113 107
1.2675 0.1219 0.1712 150 115 106
1.2670 0.1595 0.1316 138 104 98
1.2676 0.1998 0.1637 114 89 82
1.2662 0.2020 0.1367 125 97 91
1.2653 0.2499 0.1642 104 93 88
1.2648 0.2557 0.1358 110 87 80
1.2722 0.2879 0.1648 89 86 83
1.2613 0.3039 0.1406 104 90 87
1.2909 0.3294 0.1685 83 90 89
1.2725 0.3696 0.1254 103 79 73
1.2747 0.3779 0.1738 97 96 95
1.2650 0.4464 0.1162 89 82 79
1.2617 0.4451 0.1524 78 77 72
1.2667 0.4738 0.1854 123 119 105
1.2552 0.5023 0.1214 74 68 66
1.2672 0.5042 0.1604 73 68 65
1.2821 0.5327 0.2006 92 95 88
1.2586 0.5541 0.1268 79 78 72
1.2584 0.5764 0.1556 75 74 72
1.2718 0.5868 0.2049 169 171 168
1.2635 0.6291 0.2193 150 156 152
1.2704 0.6708 0.1235 84 90 85
1.2727 0.6677 0.1826 93 95 94
1.2697 0.7101 0.1640 154 160 160
1.2744 0.7701 0.0269 222 208 157
1.2812 0.7610 0.1197 124 134 130
1.2583 0.7623 0.1786 202 192 187
1.2775 0.8271 0.0268 200 196 183
1.2862 0.8296 0.0823 145 149 148
1.2756 0.8223 0.1376 146 145 146
1.2939 0.8296 0.1561 196 183 178
1.2605 0.8622 0.0096 216 206 198
1.2642 0.8910 0.1196 112 114 111
1.2544 0.9128 -0.0090 211 206 197
1.2681 0.9319 0.0454 126 132 132
1.2781 0.9442 0.0992 151 146 143
1.2750 0.9637 -0.0038 173 171 166
1.2616 0.9711 0.0572 166 161 165
1.2570 1.0207 0.0180 148 149 147
1.2893 1.0245 0.0752 191 180 177
1.2572 1.0733 0.0059 149 153 148
1.2655 1.1117 0.0238 137 143 142
1.2578 1.1891 -0.0155 214 203 200
1.2518 1.1692 0.0063 126 137 136
1.2582 1.2132 0.0167 109 124 122
1.2641 1.2818 -0.0325 131 139 138
1.2784 1.2647 0.0066 97 114 115
1.2639 1.3190 -0.0407 140 144 142
1.2635 1.3321 0.0083 97 115 118
1.2580 1.3806 -0.0306 114 126 127
1.2687 1.3699 0.0054 102 121 123
1.2706 1.4245 -0.0167 115 121 122
1.2500 1.4120 0.0181 121 134 136
1.2522 1.4614 -0.0722 150 148 148
1.2500 1.4553 -0.0175 98 114 118
1.2557 1.4692 0.0167 160 161 156
1.2557 1.5215 -0.0522 118 125 126
1.2609 1.5254 -0.0078 135 143 141
1.2588 1.5099 0.0190 177 177 172
1.2960 1.5671 -0.0948 116 120 123
1.2564 1.5770 -0.0026 143 150 148
1.2947 1.5595 0.0193 126 136 136
1.2718 1.6224 -0.1133 146 140 141
1.2818 1.6615 -0.0684 122 123 127
1.2532 1.6611 -0.0045 172 176 173
1.2901 1.7293 -0.1078 153 145 148
1.2604 1.7204 -0.0496 180 171 168
1.2540 1.7987 -0.1097 190 170 170
1.2809 1.7612 -0.0804 166 148 148
1.2962 1.7697 -0.0329 178 179 175
1.2745 1.7664 0.0394 116 127 130
1.2988 1.8181 -0.0977 185 167 168
1.2832 1.8137 -0.0485 200 189 183
1.2645 1.8260 0.0349 125 133 133
1.2948 1.8642 -0.0384 177 178 173
1.2755 1.8794 0.0221 147 153 151
1.2643 1.9133 -0.1239 255 229 224
1.2985 1.9193 -0.0964 212 194 191
1.2736 1.9215 -0.0355 196 193 189
1.2639 1.9339 0.0125 170 170 168
1.2721 1.9909 -0.0652 203 197 190
1.2601 1.9742 0.0110 186 184 182
1.2737 2.0249 -0.0812 216 204 198
1.2504 2.0157 -0.0055 185 185 177
1.2875 2.0277 0.0024 199 199 190
1.2929 2.0804 -0.1252 213 185 182
1.2653 2.0636 -0.0820 200 184 183
1.2538 2.0750 -0.0099 196 195 187
1.2782 2.0728 0.0106 202 201 194
1.2633 2.1372 -0.1361 183 184 177
1.2991 2.1225 -0.0957 223 208 202
1.2689 2.1176 0.0187 195 194 185
1.2588 2.1806 -0.1145 218 204 199
1.2955 2.1740 -0.0989 210 189 184
1.2673 2.1548 -0.0128 191 190 182
1.2825 2.1553 0.0112 189 190 183
1.2608 2.2252 -0.1235 242 211 206
1.2937 2.2406 -0.0956 221 210 204
1.2756 2.2317 -0.0281 200 200 193
1.2875 2.2176 0.0181 183 182 176
1.2945 2.2888 -0.0980 221 206 200
1.2875 2.2694 0.0224 170 170 168
1.2852 2.3100 -0.1315 236 198 192
1.2903 2.3862 -0.0986 224 206 202
1.2773 2.4353 -0.1164 248 215 210
1.2643 2.4426 -0.0959 210 196 191
1.2584 2.4222 0.0136 135 148 148
1.3030 -2.7506 -0.0043 91 102 104
1.3119 -2.7020 -0.0119 104 110 108
1.3353 -2.6879 0.0202 83 94 95
1.3263 -2.5805 0.0110 105 105 105
1.3112 -2.5299 0.0128 105 109 109
1.3283 -2.4626 0.0196 129 129 129
1.3324 -2.4182 -0.0340 192 174 173
1.3334 -2.3937 0.0244 162 158 159
1.3206 -2.3221 0.0161 158 153 150
1.3262 -2.3299 0.0714 125 122 116
1.3208 -2.2561 -0.0074 174 165 164
1.3139 -2.2634 0.0832 135 131 125
1.3174 -2.2453 0.0247 168 164 161
1.3202 -2.1926 0.0171 183 174 171
1.3209 -2.1855 0.1173 126 125 121
1.3178 -2.1297 0.0127 208 193 187
1.3476 -2.1103 0.0640 212 192 190
1.3191 -2.0503 0.0277 216 201 195
1.3059 -2.0089 0.0109 177 166 163
1.3410 -2.0479 0.0823 211 196 192
1.3309 -1.9711 0.0450 187 172 166
1.3317 -1.9906 0.0835 199 188 183
1.3150 -1.9005 0.0941 181 166 159
1.3031 -1.8638 0.0389 146 141 137
1.3417 -1.8564 0.0524 136 132 129
1.3084 -1.8785 0.1525 165 159 151
1.3310 -1.8138 0.0506 96 98 97
1.3267 -1.8298 0.1228 169 168 164
1.3123 -1.7531 0.0557 67 78 79
1.3286 -1.7564 0.1087 93 99 100
1.3380 -1.7537 0.1613 128 132 133
1.3140 -1.7019 0.1784 139 140 137
1.3434 -1.6509 0.1864 172 172 169
1.3219 -1.5782 0.1935 143 144 147
1.3098 -1.5026 0.2064 148 144 142
1.3244 -1.4375 0.1859 89 88 83
1.3468 -1.3649 0.1538 73 83 79
1.3300 -1.3209 0.1924 72 88 89
1.3164 -1.2567 0.1939 75 88 88
1.3184 -1.2048 0.1888 73 82 81
1.3072 -1.1604 0.2000 75 86 85
1.3153 -1.1233 0.1894 72 83 86
1.3061 -1.0762 0.2185 67 81 83
1.3132 -1.0223 0.1971 73 87 89
1.3190 -0.9644 0.1879 68 82 84
1.3195 -0.9690 0.2173 64 78 78
1.3263 -0.9045 0.1942 85 94 93
1.3083 -0.9194 0.2174 76 87 86
1.3071 -0.8746 0.2272 65 77 78
1.3166 -0.8271 0.1892 88 97 96
1.3323 -0.8252 0.2212 67 80 80
1.3135 -0.7623 0.1996 113 114 111
1.3247 -0.7212 0.2260 143 141 137
1.3278 -0.6882 0.1639 167 158 154
1.3176 -0.6621 0.2255 132 132 129
1.3360 -0.6203 0.1638 185 176 173
1.3144 -0.6061 0.2283 165 158 152
1.3268 -0.5505 0.1674 234 210 199
1.3240 -0.5591 0.2322 153 149 144
1.3155 -0.5109 0.1420 251 208 193
1.3240 -0.5131 0.2238 162 157 151
1.3144 -0.5133 0.2507 144 135 131
1.3025 -0.4579 0.1431 200 167 160
1.3210 -0.4902 0.1654 225 198 188
1.3276 -0.4598 0.2285 159 152 146
1.3255 -0.4053 0.1466 184 152 145
1.3137 -0.4471 0.1821 196 182 175
1.3230 -0.4145 0.2269 175 170 161
1.3239 -0.4262 0.2582 163 154 151
1.3499 -0.3781 0.1480 229 210 198
1.3166 -0.3758 0.1850 195 181 174
1.3272 -0.3665 0.2428 151 147 140
1.3287 -0.3454 0.1426 215 167 154
1.3236 -0.3018 0.2356 162 158 150
1.3129 -0.2949 0.1434 176 137 129
1.3187 -0.2757 0.1894 210 192 182
1.3133 -0.2356 0.1585 150 115 109
1.3140 -0.2279 0.2167 200 188 177
1.3196 -0.1893 0.1536 143 118 114
1.3078 -0.1721 0.2334 139 132 128
1.3195 -0.1452 0.1556 203 182 147
1.3224 -0.1259 0.2029 230 221 208
1.3335 -0.0642 0.1380 255 255 175
1.3115 -0.0984 0.1611 179 152 135
1.3298 -0.0681 0.2302 213 203 193
1.3187 -0.0429 0.1261 178 134 121
1.3090 -0.0228 0.2438 234 201 191
1.3227 0.0241 0.1659 158 138 130
1.3215 0.0255 0.2134 187 177 166
1.3136 0.0550 0.1296 167 127 122
1.3198 0.0881 0.1598 157 123 114
1.3276 0.0965 0.2160 169 155 148
1.3209 0.1254 0.1309 143 104 96
1.3135 0.1522 0.1753 154 124 113
1.3238 0.1677 0.2128 132 117 108
1.3136 0.2087 0.1388 130 102 95
1.3195 0.2221 0.1734 110 94 88
1.3167 0.2608 0.1427 111 97 91
1.3371 0.2611 0.2069 137 121 115
1.3146 0.3319 0.0992 103 80 81
1.3199 0.3122 0.1326 118 98 94
1.3230 0.3250 0.1746 85 80 75
1.3208 0.3787 0.1451 93 86 83
1.3070 0.4215 0.1054 90 69 68
1.3173 0.4251 0.1624 88 86 77
1.3076 0.4572 0.1125 96 90 87
1.3130 0.4859 0.1703 89 84 79
1.3156 0.5123 0.1169 70 66 64
1.3141 0.5435 0.2084 132 138 134
1.3143 0.5558 0.1266 79 71 66
1.3121 0.5522 0.1554 78 74 71
1.3110 0.5993 0.2123 158 164 161
1.3329 0.5878 0.2560 139 143 146
1.3087 0.6233 0.1237 43 44 39
1.3196 0.6258 0.1684 75 73 69
1.3142 0.6481 0.2022 153 159 156
1.3456 0.6681 0.1166 157 164 164
1.3276 0.6622 0.1648 149 160 155
1.3207 0.7262 0.1235 96 105 106
1.3130 0.7212 0.1673 148 149 148
1.3487 0.7706 0.0132 215 205 191
1.3118 0.7822 0.1668 190 178 175
1.3391 0.8050 0.0803 142 148 143
1.3132 0.8108 0.1222 109 117 119
1.3059 0.8637 0.0205 206 201 192
1.3211 0.8795 0.0799 126 132 134
1.3155 0.8524 0.1297 143 142 140
1.3221 0.9139 0.0033 185 183 178
1.3146 0.9200 0.0782 113 125 123
1.3122 0.9018 0.1162 220 207 202
1.3452 0.9912 0.0012 108 119 119
1.3261 0.9801 0.0779 135 135 134
1.3201 1.0056 0.0189 96 106 106
1.3256 1.0465 0.0648 163 150 148
1.3118 1.0615 0.0026 132 140 136
1.3032 1.1163 0.0257 127 134 132
1.3085 1.1850 -0.0239 173 169 168
1.3085 1.1708 0.0075 135 142 141
1.3027 1.2313 -0.0312 159 161 160
1.3178 1.2156 0.0081 115 128 129
1.3066 1.2681 -0.0358 127 135 135
1.3035 1.3156 -0.0581 178 172 171
1.3073 1.3166 -0.0334 113 123 122
1.3038 1.3006 0.0044 98 115 116
1.3050 1.3717 -0.0666 138 143 145
1.3089 1.3607 -0.0285 111 122 122
1.3195 1.3603 0.0193 138 144 143
1.3264 1.4289 -0.0732 137 135 136
1.3167 1.4278 -0.0288 113 121 121
1.3267 1.4174 0.0133 157 161 162
1.3231 1.4907 -0.1022 178 162 160
1.3167 1.4670 -0.0829 129 137 138
1.3160 1.4854 -0.0120 145 150 148
1.3281 1.4893 0.0105 202 200 196
1.3029 1.5210 -0.0648 127 134 134
1.3344 1.5269 -0.0067 147 151 150
1.3183 1.5189 0.0174 180 178 176
1.3130 1.5759 -0.0289 130 130 127
1.3255 1.6284 -0.0745 123 123 126
1.3159 1.6304 -0.0084 148 156 152
1.3365 1.6739 -0.1009 114 118 122
1.3480 1.6677 -0.0186 156 163 161
1.3062 1.7283 -0.0222 190 190 188
1.3426 1.7837 -0.0861 161 151 150
1.3008 1.7772 0.0114 116 130 129
1.3457 1.8143 -0.0938 166 155 154
1.3100 1.8172 0.0460 156 165 162
1.3021 1.8916 -0.1032 221 198 197
1.3398 1.8798 -0.0404 183 180 178
1.3137 1.8535 0.0484 145 152 150
1.3459 1.9317 -0.0311 170 173 170
1.3160 1.9359 0.0098 149 151 148
1.3148 1.9889 -0.0220 193 193 189
1.3070 2.0332 -0.1320 188 162 164
1.3380 2.0320 -0.0795 178 172 171
1.3465 2.0217 -0.0462 179 177 169
1.3411 2.0917 -0.1298 199 175 174
1.3110 2.0845 -0.0789 192 185 180
1.3450 2.0639 0.0141 194 193 184
1.3040 2.1272 -0.0730 201 199 192
1.3467 2.1315 0.0118 187 188 180
1.3472 2.1763 -0.0959 192 174 172
1.3115 2.1706 -0.0494 199 200 193
1.3450 2.1692 0.0228 199 202 194
1.3299 2.2146 -0.1419 248 217 214
1.3313 2.2227 -0.0346 194 195 190
1.3449 2.2219 0.0272 198 200 192
1.3404 2.2868 -0.1065 234 210 205
1.3206 2.2743 -0.0423 196 197 192
1.3449 2.2746 0.0315 201 203 195
1.3252 2.3377 -0.1106 222 206 201
1.3258 2.3402 -0.0579 206 207 200
1.3149 2.3254 0.0139 196 196 192
1.3203 2.3886 -0.1306 160 165 161
1.3433 2.3828 0.0051 185 185 185
1.3912 -2.7120 0.0249 93 100 98
1.3598 -2.6923 -0.0047 91 99 99
1.3555 -2.6381 0.0045 95 101 101
1.3559 -2.5859 0.0233 100 106 105
1.3678 -2.5406 0.0243 111 114 114
1.3703 -2.4946 0.0114 125 124 124
